# 3D point list with one line of data per point:
#   POINT3D_ID, X, Y, Z, R, G, B, ERROR, TRACK[] as (IMAGE_ID, POINT2D_IDX)
# Number of points: 375, mean track length: 4.9309847993660396
4813 -0.49154877597860325 1.1141476675950841 2.6609471996271252 87 143 67 0.036313683959599385 82 642 55 471
4814 -0.52961502264524052 0.81163774507453246 2.6130450098805653 57 92 50 0.11377770056562792 49 438 55 474 43 478
4815 -0.55940097922524445 0.2207019710264797 2.6790001751853425 59 102 44 0.22702359645059181 49 502 63 426 55 479 43 484
4816 -0.54949470580290949 0.85230473222052494 2.6169905573332626 54 92 48 0.042510822943331542 74 610 55 487
4817 -0.57020898581018209 0.68240018598228847 2.6117828050227816 58 94 51 0.038242589772733433 77 539 55 492 43 493
4818 -0.57672323021337013 0.64280422723795594 2.6119253524742843 59 101 53 0.045902670242632518 34 498 55 499
4819 -0.70732190779467985 -0.055994656273880533 2.1740421744301228 70 106 51 0.36099687202668457 54 54 55 500 31 385 50 321 36 257 25 40 38 37
4822 -0.72538145429055545 -0.0098301656437059792 2.1669308831893686 74 114 56 0.10500819076246419 62 46 55 517 36 239
4823 -0.45119736434455793 0.8385482473171485 3.4399880491977473 248 234 151 2.9547618318990638 35 738 55 521
4824 -0.45352775310241644 0.11366378496756799 3.6772387582466504 193 171 107 1.3302508435937705 82 574 55 524
4827 -0.61086695396325341 0.64733114628747446 2.6094748724720795 54 91 49 0.2479067943979314 35 487 55 530
4829 -0.63608128228145833 0.26307735395392479 2.6636810431388911 157 154 90 0.084311530403441845 77 427 55 538 44 333
4830 -0.6485102936574253 0.18270678205595042 2.6829782953152139 184 164 100 0.15301930857189872 16 235 55 543
4831 -0.64786196862721834 0.3968315329330635 2.6374753406619349 182 165 102 0.12412861067133792 77 469 55 548 51 129
4832 -0.61084535551962571 1.2536544832910139 2.6960382343344431 249 243 244 1.870265492006254 2 1111 55 557 51 54
4833 0.48108135682864772 0.064547478967019886 9.9216335126716189 188 169 105 1.1031881726756894 63 317 55 567
4834 -0.66687810540555537 1.0663482709679213 2.6504748887716927 233 227 156 0.25567481936520153 63 573 55 573 31 33 78 83 85 1221
4835 -0.6829693194326002 0.9402989116494157 2.6230918728538639 70 121 56 0.13876538625877727 54 201 55 578
4836 -0.6808410387408641 1.020084312701087 2.6396720081532892 242 229 156 0.17091991654172978 63 577 55 580 61 617 37 641 52 380
4837 -0.82951634966347487 0.16153033903295483 2.1558539773206689 67 119 56 0.011256914153334997 82 421 55 591
4839 -0.77623508024116583 0.49704756077220597 2.6259662938099644 56 88 44 0.050307118244952098 49 587 55 609
4840 -0.76138648803723707 0.92674470837598222 2.626400572162833 75 126 60 0.04659474576229107 63 607 55 620
4841 -0.76000716194942897 0.95371714161093002 2.6251899878673175 178 188 116 0.16497257403461435 62 518 55 623
4843 -0.79122735606671124 0.64233034718674697 2.603790054761888 62 101 51 0.14502521951321223 49 583 55 629 76 549
4845 -0.86844096536715398 0.50260033685227279 2.6147012248842243 176 170 102 0.083982110926114587 62 257 55 655
4848 -0.52168752585958911 0.70575061686623686 2.615949007382997 0 0 0 0.11137396489019302 2 465 63 455
4851 -0.96556747560841738 0.52614455563541673 2.6265758464658284 81 115 56 0.12650201841554465 49 658 55 681 19 383 41 389
4853 -1.1421623093707258 0.6000362520706588 2.6525433546136541 89 122 60 0.29267589455026771 49 705 82 765 55 721 61 742 43 754 52 542 19 450
4854 -1.1737902939704272 0.61578769110130904 2.6563277891527166 206 194 113 0.21514925486074077 49 715 54 12 62 262 55 728 61 1405 33 1006
4855 -1.1826953966287728 0.69335415060530081 2.662552152954992 96 169 77 0.19195284023052314 82 798 55 733 76 693
4856 -1.2168877352663383 0.60199926893247402 2.670616021357513 85 117 57 0.2073250152332175 63 703 55 738 65 1095 61 768
4857 -1.2996819115143861 0.73797551712229559 2.860861855995664 101 80 61 0.14017045979542261 49 1301 55 747
4858 0.34749605390214577 0.20428888174375343 1.7606186326800719 166 168 180 0.032542352623233337 77 856 55 757
4859 0.38218445564792303 0.27697807506869176 1.9706899128688509 156 154 160 1.1830897792937509 95 898 85 869 82 907
4860 0.23991550733201844 0.1332395100682256 1.7245153156262933 219 221 236 0.31348123822939628 49 761 55 773 43 802
4861 0.22062585016726644 0.11715826421932198 1.706977010748143 225 228 243 0.21954701108392949 49 22 55 776 43 19
4862 0.16512718184723685 0.061402663083637406 1.7389021997786396 35 63 33 0.10215734908864842 49 1309 55 786
4863 0.058085713400962816 -0.0083183605550379222 1.6541250997491668 213 217 231 0.42068582996006443 49 56 63 755 55 792
4864 0.058085713400962816 -0.0083183605550379222 1.6541250997491668 213 217 231 0.42068582996006443 49 55 63 756 55 793
4865 0.32042546901671082 0.34686311732531944 2.1657988402337573 220 227 243 1.0467853157216589 59 2201 55 794 60 1791
4866 -0.052008795620434124 -0.13685606154590613 1.5432625701678433 205 163 105 0.54562421037077313 77 10 55 801
4867 -0.00283815454892139 -0.039808986221449738 1.684935622219278 50 84 48 0.32289585924661224 49 794 55 803 33 54
4868 -0.002141344730873837 -0.017878602717589093 1.6961526869268111 192 190 142 0.073310861112372158 82 890 55 805 43 833 65 38
4869 0.27319801405261529 -0.081702820816736424 2.4120001102073654 157 170 121 3.7743423710893853 35 173 55 818
4870 0.22295766914096371 0.5634238878282799 2.2447791296981836 249 236 150 0.18165844129759379 49 798 82 224 55 824 33 45
4871 0.25280889870825124 0.3859225313122413 2.4179947115642877 185 189 202 1.4186132008351808 49 826 61 962 43 129 60 1445
4872 0.15571174856415299 0.7324212333593858 2.2341153177446635 81 140 68 0.67949280834403014 77 1597 82 1025 55 842
4873 0.13777301828183403 0.64962224145865222 2.2329193654742636 65 103 47 0.24378575869744243 49 820 55 844 61 972 76 163 33 661 41 61
4874 -0.084484644050735927 0.023281743535252183 1.7849430963731072 71 138 74 0.36187045600032647 49 836 55 845 43 93
4875 -0.037284560411804835 0.1384219768273604 1.9588622639772 83 163 92 0.0033725307969652294 63 819 55 858
4876 -0.01281348948667127 0.19294289559233885 2.0899330072079145 160 183 130 0.3284936324194106 49 846 63 136 55 863 43 1409
4877 0.19792605978204131 0.43778238430111588 2.8446434438099226 98 91 56 0.16902360690003593 49 178 63 1291 55 882 43 218
4878 -0.238748560204459 -0.15375980400956707 1.7596433872716004 44 85 45 0.11965885183904085 63 844 77 902 55 887
4879 -0.26685220306835128 -0.149276775370559 1.7700371770293823 47 89 45 0.024112971805946848 49 872 55 894 43 880
4880 -0.036330734828648084 1.0573260985906221 2.6353338734757088 102 86 72 0.45121132573014866 77 1235 55 946 60 1027
4881 -0.33404663802794832 -0.073676745472161145 1.9328187677606967 69 133 71 0.094860110765942238 49 935 63 906 55 951
4882 -0.37339582762716439 -0.17228433991684 1.8665383176597909 63 127 69 0.20322143822791811 49 944 55 957 33 789 41 601
4883 -0.40469135568387882 -0.26109903914869376 1.8381362035037385 140 135 136 2.0613640102851671 49 961 63 1358 55 963
4884 -0.12239940868578782 0.4834804938677551 2.7170851368837869 55 110 57 0.17722031949177833 49 950 55 972
4885 -0.15704797945400639 0.2394234358102601 2.7520493364259475 51 97 52 0.46907883620418067 16 1309 49 981 55 981 98 1130 8 1233 31 1160
4887 -0.39967275382909234 -0.088692364891618095 2.0580006302609477 75 142 78 0.36950471227795778 49 989 55 989 33 250
4889 -0.20125156277839212 0.51771105373153581 2.695361436955543 143 140 95 0.01419492480939747 49 976 55 994
4892 -0.28134254745792875 0.31668580154671516 2.7090288220467862 60 115 53 0.19204112514854782 82 399 55 1014
4893 -0.45227362069263161 -0.11055349694345194 2.1856744080045147 63 130 67 0.21630631754766239 49 1462 63 962 55 1019 33 1197
4894 -0.45924951424697991 -0.13202960307355499 2.1709147142082243 52 107 56 0.25035321240197389 49 1026 55 1020 43 1513
4895 -0.00089365289326527597 0.94670930802869613 3.8456488239287716 61 107 52 1.7890743227342423 82 1306 55 1030
4896 -0.50248116859750003 -0.17981005891007923 2.1187179478348632 209 206 216 0.62483832314058851 49 409 55 1032 43 1007 61 1578 76 951 79 1735 53 1250
4897 -0.32729788779297558 0.28496577184764882 2.6971383136264566 70 114 53 0.087344074582838466 49 1029 55 1034
4898 -0.8233598346235087 0.74226473774086033 0.57353084386977649 150 161 98 1.0176135720949642 82 1473 55 1035
4899 -0.82984974212817919 0.72925103130226043 0.56929398113804741 147 160 98 1.1293671238028158 82 1471 55 1036
4902 -0.22239198185898099 1.3947177184844131 2.9092974507571974 235 204 145 0.51009023989012525 62 1132 55 1044
4904 -0.84552792051262748 0.75179962913603982 0.58234311525273652 150 161 99 3.139532045092607 82 1486 55 1052
4905 -0.35563125112588179 0.65225493673194557 2.6518831539877397 185 171 112 0.085385910495296147 49 1010 55 1055
4906 -0.33197686472761728 1.0565112159615919 2.6688399836786956 182 185 118 0.13073672028857131 77 1303 55 1058 43 405 98 753
4907 -0.38219599925405107 0.26361997216299815 2.6916284128905192 177 158 93 0.063860920381189692 2 852 49 1048 55 1059 43 1085
4908 -0.3302866069527034 1.2117897980013712 2.7105695178602658 242 233 158 0.12668837414427359 63 1041 55 1064 44 11
4909 -0.42793659568101666 0.98017886329050807 2.6450337028872029 66 113 54 0.16480597189689916 34 1263 63 1057 55 1085
4910 -0.52151622058747371 0.17412120650682156 2.7009816538151665 130 136 74 0.068352649690985576 49 1102 55 1103
4912 -0.5460827014368318 0.44790394530010624 2.6336338921920763 176 162 97 0.14938498378112378 63 1063 55 1115 31 734 44 617 30 506 36 503
4913 -0.56221267178142142 0.3406923135721161 2.6532419310789792 179 161 98 0.19009439239926409 49 1104 55 1120 43 1150 51 562 33 887
4914 -0.5616140244004334 0.34071493285464399 2.6549111287471665 179 161 98 0.22155306876849884 49 1103 55 1121 43 1151 33 886
4915 -0.68371396193218126 -0.04607821203021506 2.1768061106259569 94 131 66 0.26352083258671738 54 685 55 1127 33 900 70 627
4916 -0.68305442652099313 -0.047222550726196855 2.1812683126445971 94 131 66 0.036708391195073617 49 1120 55 1128
4917 -0.58762599356417056 0.51182572274116267 2.6226815616253614 61 102 50 0.064570835058508635 63 1078 95 1059 55 1143 43 1163
4918 -0.58743890502856078 0.51142767208460449 2.6236799522755652 61 102 50 0.095978857260633405 95 1060 55 1144 43 1164 52 373
4920 -0.58831207532406815 1.1137736643767147 2.6712536326803749 248 235 154 0.20088701244029111 63 1122 55 1156
4922 -0.66550261914540987 0.29215274042595502 2.6605888313965886 58 96 43 0.17448544469390295 49 1152 55 1160 43 1178
4923 -0.68710060712593279 0.41962206130231822 2.6322105143709922 75 106 52 0.058875653834342047 63 1113 55 1167 44 632
4924 -0.68710060712593279 0.41962206130231822 2.6322105143709922 75 106 52 0.058875653834342047 63 1112 55 1168 44 631
4925 -0.70441654202452375 1.2075208952765897 2.7116074380617494 114 155 65 0.17993159493745228 16 1176 55 1198 2 1095
4928 -0.88727076544683292 0.13393222117039133 2.1804898781962492 80 135 56 0.448195174868044 49 1595 55 1210 43 1951 61 2037
4929 -0.89519198508366304 0.16007255669679682 2.1768351675755384 81 136 57 0.26346710258548345 49 1198 55 1212 43 1186 61 1132 44 327 50 249
4930 -0.74749798941582124 -0.15897651905476018 3.5298968001555364 111 105 100 0.48753602662116347 49 1256 55 1213 43 1298 61 1335 33 635 41 907 9 437 94 402
4932 -0.92146902621469762 0.28655723892363771 2.1799287650360886 122 98 68 0.27027935298170913 49 1205 55 1227 43 1204
4933 -0.86064449409348365 0.94435053051801554 2.6377138824611523 90 158 73 0.13826758736894831 49 1184 55 1242 76 1213
4934 -0.91234068740588747 0.87664123077410983 2.6493941203381937 81 146 67 0.032853987773114213 63 1187 55 1251
4935 -0.93834209080659925 0.89633695021617232 2.6417536654711511 100 172 77 0.024259603385357022 16 1088 55 1259
4936 -0.93843046985515643 0.89643776678748532 2.6399113816826349 100 172 77 0.25492833277827631 16 1087 55 1260 98 71 41 763
4938 -1.0483943120437238 0.45667594003133832 2.6487709333023544 249 241 247 1.0509074301164423 49 684 77 1819 55 1269 61 1346
4939 -1.051048594227689 0.62661091786745093 2.6311351963439069 80 122 60 0.099369899668739173 49 1260 77 1356 55 1271
4940 -1.1211784900840356 0.59596174361235155 2.6429659545810629 67 114 51 0.76773324833742318 49 1275 55 1283 43 1321 61 731 76 1275 33 998 19 442 41 416
4942 -1.1754196083333801 0.79829596517706358 2.6750224403961766 195 209 112 0.78594162315815796 49 1655 55 1293 43 1763 61 1879 76 1699 33 988 19 1401
4943 -1.2013839329197218 0.44252943796131122 2.7124212972447834 80 96 44 0.51159845629160416 49 1294 55 1294 43 1328 33 1028 41 882 94 895
4945 0.26711838345501815 0.13891187047586218 1.6800559829294188 255 255 255 0.16082064533879858 49 1307 63 1227 55 1311
4946 0.05369654307245654 -0.062760932948813408 1.5233088949595892 20 10 4 0.61570389365668687 49 773 63 1233 55 1320
4947 0.0051473235392859307 -0.061939222526153623 1.5312118419445262 63 43 25 0.39660933190545322 49 1311 63 1243 82 1430 55 1329
4948 0.039879836083423228 0.027875432436838904 1.7202153812188137 61 111 56 0.03270891942344769 2 1181 55 1339
4949 0.15170155991888101 0.24056717364743291 1.9984566090118434 95 195 112 0.19700776162350589 49 792 63 1251 55 1343
4950 0.12193934976336317 0.20970832823688706 1.942085740361291 186 200 149 0.1791114094995381 37 1459 55 1344 43 1381
4951 -0.061104930170267746 -0.098612189779037865 1.5725773482163663 105 80 55 0.55450531128189651 49 1318 55 1346 43 1364
4952 0.078247965785944548 0.17265174409948486 1.8930842521031546 187 199 149 0.14726253280780904 63 1260 55 1347
4953 0.11473173515057682 0.22128414572443644 1.9751401726420827 178 203 145 0.19496509130029291 49 1320 63 1254 55 1348
4954 -0.092083216645521423 -0.099709560071435929 1.5896627271146169 93 93 60 0.71571079861351494 16 1199 63 1268 55 1353
4955 -0.11213066556910699 0.0018037188527120912 1.7791361546590203 70 135 72 0.22486889964731088 49 1351 55 1373
4956 -0.12820896999879966 -0.012317299497646719 1.7746709550915163 183 183 134 0.26831680618506054 49 1356 63 1289 55 1375
4957 0.08747202095860647 0.79055170539998931 2.2354398117898624 86 149 65 0.17884141550997609 49 828 82 1595 55 1379 61 988 60 956
4958 -0.1480522366037485 -0.035262968412793944 1.7704484590871317 173 171 123 0.11086877006293439 63 1294 55 1380
4959 0.14855033921240995 0.38048052047345121 2.695711766773865 141 126 108 1.7612053669506409 49 853 63 138 55 1388 43 213 76 964 65 868 93 1315 18 1264
4960 0.030604145383920464 0.80761545203668028 2.3216200432715124 165 145 117 1.0097799293573446 49 1697 55 1393 43 1836 61 2247 76 2021 60 2043 33 1565 18 1683 52 1601 19 1609 41 1382 20 2008 9 1135 13 1261 96 1212 71 1240 22 1195
4961 -0.24557251132370589 -0.12179232123601356 1.7741524115662766 94 116 75 0.11680734364356012 49 1366 55 1397 43 1406
4962 -0.26310509033437235 -0.026209825181881585 1.9193819613942589 157 166 119 0.13334302710066576 49 1391 55 1418 43 1432 33 1106
4963 -0.26310509033437235 -0.026209825181881585 1.9193819613942589 157 166 119 0.13334302710066576 49 1390 55 1419 43 1431 33 1105
4965 -0.21869679429298411 0.06979311886360258 2.1022441721828069 79 158 90 0.049107259368902513 63 1337 55 1430
4966 0.0050115820069742273 0.40212021119519969 2.77280770524002 57 114 59 0.70289611057731971 62 1362 55 1433 33 768
4967 -0.31188224130432401 -0.050097610101081186 1.9588055971631384 74 138 73 0.13288434886071879 49 922 55 1440 43 1451
4968 -0.34386404954596012 -0.11940818214450509 1.8827074070489342 67 127 65 0.11546439184949701 49 1404 77 1512 55 1443 43 1444 61 1526 82 1513 76 1396 60 1367 65 1193
4969 -0.34438659159892659 -0.1189636487201164 1.8800161458250659 67 127 65 0.035453744384421351 63 1350 55 1444
4970 -0.048028457270906218 0.27824455292183303 2.7776337990809452 195 188 113 0.16452572483625041 49 1414 55 1448 43 992
4971 -0.30311232506231789 0.003267116525188761 2.0612830924163004 157 175 122 0.10033744234782493 49 1410 55 1452 43 1462
4972 -0.070606006193504101 1.1200824037639645 2.6889391918583145 255 254 249 0.29030858049251773 49 889 63 1381 55 1461 43 1511
4973 -0.32594147443609622 0.010986469399531969 2.1114803479579649 126 165 108 0.21987674960726877 49 1421 55 1462 43 1473
4974 -0.057292113042415119 1.1662496046348885 2.8001099618374909 255 255 255 0.09243369933713963 49 902 63 1382 55 1466
4976 -0.20128966548246552 0.8899602247366315 2.6767910584796204 66 112 53 0.040064580371188131 49 1418 55 1488 43 1035
4978 -0.24483213386492186 0.89284697514148781 2.6631122191877594 150 161 95 0.23770950582463682 49 1426 55 1501 31 1033
4979 -0.52210352666791593 -0.18023143869020503 2.1172243358318976 82 69 46 1.3551639612467687 49 1047 55 1522 43 1524
4980 -0.3829766653252466 0.28044610985557411 2.6822574519623767 158 150 88 0.24284475104778927 49 1473 55 1527 33 1206
4981 -0.3829766653252466 0.28044610985557411 2.6822574519623767 158 150 88 0.24284475104778927 49 1474 55 1528 33 1207
4983 -0.38979024915042526 0.19536768375459501 2.7051237004864443 140 136 77 0.30451018703598004 54 1216 55 1531 43 1567
4984 -0.39587791056024385 0.26746709409248648 2.6957700577159494 61 104 45 0.2450759590523795 49 1479 55 1537
4985 -0.42382256000486662 0.21441020636638825 2.6993508007309082 179 159 96 0.14959822069416503 49 1491 55 1545 43 1574
4986 -0.4245330955860413 0.21438222630470427 2.6982696997318252 179 159 96 0.13909751148963184 49 1492 54 1199 55 1546 43 1573 98 1053 16 1306 8 1235 31 1127 33 1234 44 968 78 828
4989 -0.63437059020990871 -0.14592415192504532 2.2144439867278494 129 94 55 0.29892429356748068 54 85 55 1573 8 970 31 449 98 82
4991 -0.52121775212299037 -0.0023049863275490037 2.743670724403187 106 115 61 0.50440926812954545 77 1634 55 1576 8 1273
4992 -0.50450342181091812 0.67023672923798938 2.6175344778825527 57 96 50 0.13417644272140425 63 1488 55 1577 8 1086
4996 -0.61871031973955115 0.24110924980005949 2.67400049206839 60 102 45 0.067499658775840493 77 1166 55 1610
4999 -0.66466681343575895 0.70667925972265888 2.6046801492486686 62 103 52 0.2329556644496816 2 1365 55 1627 95 1488
5001 -0.71691470279908287 0.48982302526663374 2.6226740070918537 64 100 49 0.20853537397037059 63 1538 55 1642 43 1645 33 902
5002 -0.7257364275467354 0.5998077953799793 2.6089590634023283 49 89 45 0.14929845749091239 49 1560 55 1646 8 1105 33 1241
5004 -0.7535409485637623 0.52938134513627477 2.616421670806397 53 91 47 0.22205767384192165 49 1572 55 1655 43 1658 82 1752 31 1019 33 1256
5005 -0.74018878447010172 0.83277635934662642 2.6104476488348882 250 245 154 0.11060265971234869 49 1554 55 1657 43 1660
5006 -0.74878751779978747 0.74340559954244179 2.6066018200627767 234 216 134 0.0056985421937892598 34 1676 55 1658
5008 -0.52928284252205482 0.51327145977158939 4.5908701218247883 56 93 46 2.3333013794518664 35 1795 55 1668
5009 -0.72594640604508309 -0.17900054699064966 3.5023814230469785 169 154 136 0.75951887371404025 49 1635 55 1670 43 2010 61 1810 76 1947 33 1543 41 1358 19 1436 9 1126 94 1184 13 1218 96 1191 71 1205 22 1260 99 878 56 872
5010 -0.84901262450497506 0.98605707528969122 2.6473335026046816 93 160 72 0.25316655031176183 35 1757 55 1687 85 1726 37 1784 61 1821
5011 -0.97657374048579604 0.24611546457798139 2.1820530681681971 255 253 202 0.21206528180475698 49 1618 63 1580 55 1692 43 1668
5014 -0.9322530296111371 1.0154397212601254 2.6667900946956378 220 210 137 0.15491357344333245 77 1915 55 1713
5016 -0.99950965855801033 1.0686882200077448 2.8702308260298963 209 198 195 0.44636937172349167 49 1628 63 1202 55 1729 33 1283
5017 -1.1326554772901718 0.60755645282185855 2.6483190549989981 72 115 54 0.38652756391070636 63 1614 55 1740 43 1744 61 1858 76 1677 65 1451 93 1041 52 1334
5018 0.17097583334064642 0.071462157451776115 1.6662497446989097 103 103 51 0.49981565131276212 49 1670 55 1760 43 2044
5019 0.079890489658155608 0.080903701825298213 1.7648790336586866 76 137 70 0.070331969763702568 63 1640 55 1765
5020 0.21502800870885125 0.44505224325605608 2.2810324283078809 201 176 154 0.49615687773319611 49 1902 55 1775 43 1813 82 1540 33 1393 41 1204 19 1031 94 946 9 1003
5023 -0.025290438588169498 0.11936361538349341 1.8956443084828696 83 160 88 0.13433871602455749 63 1655 55 1784
5024 -0.092550867743767515 0.0079780963672896887 1.7770405750479854 144 164 110 0.17877734446140159 49 1690 55 1785 61 1921 27 1170 20 1246
5025 -0.033478224412488086 0.12015336482011338 1.9342124027416601 82 162 89 0.18746596460690429 49 1691 55 1787
5027 -0.13964006126890449 -0.013427972966715461 1.7908300347767523 67 130 69 0.15887932619984491 49 1701 55 1792
5028 0.16531659916612496 0.36640166811070196 2.5851878515274245 158 159 166 0.15385373320341611 63 1283 55 1794
5029 -0.10722262141196665 0.12744923712990536 2.0642325429082846 88 168 96 0.48716018215807488 49 1709 55 1800 43 1828
5030 -0.16245141582672928 0.097788785801112221 2.0655335214768522 85 165 94 0.15456701341721304 49 1712 55 1809 43 1833
5031 -0.22963869207715942 0.095793981159004768 2.2177016825890412 88 166 96 0.088415128213005151 49 1727 55 1821
5032 -0.1637169995787297 0.64668010872704573 2.6930313419401757 53 101 51 0.67726451623292505 77 2072 55 1836 43 1528 76 1043 52 800 19 214
5034 -0.31780548512951262 0.88631139887404486 2.6491613702685486 63 111 55 0.85435306938321631 49 1760 55 1867 61 2051 64 1672 100 1924 60 1866 85 2169 41 636 9 499 94 457 47 193
5037 -0.63241747758123867 0.89723590197126923 2.6181191336620229 151 160 99 0.055557280042620241 59 2095 55 1905
5038 -0.69041256635554249 0.51503930547541188 2.6142068659599289 217 202 123 0.21411177031030912 82 2098 55 1910 61 2076
5039 -0.81402747712327062 0.066436307474563916 2.1588082328800384 71 112 53 0.29637110635370417 49 1837 55 1914 43 1933 61 2018 76 1828 33 1658
5041 -0.7238700371771859 0.60114309238090047 2.6082550369121398 46 88 44 0.12751603153953192 49 1829 55 1918 43 1960
5042 -0.72317177375327935 0.60133429641534031 2.6089813671803483 46 88 44 0.23502271755555321 49 1830 55 1919 43 1959 36 896
5044 -0.75179993637041154 -0.14007594908820026 3.527207601553124 203 182 151 1.0701711198711643 49 1870 55 1932 33 1544 9 1127 94 1250 41 1552
5045 -0.8702474905194103 0.46707975650114258 2.6170891014688604 58 91 45 0.099599030677261668 49 1849 55 1939
5046 -0.90365354449878565 0.56437164910207738 2.616676213107497 60 98 50 0.17405266256696819 49 1851 77 2133 55 1943 43 2000
5048 -1.4607916235473442 0.67865373282638697 3.4586628899929943 225 203 168 0.029360317605919672 49 1890 55 1972
5049 0.34797641732502593 0.20512063764885979 1.7311767719387352 255 255 255 2.4288234890059255 49 1891 55 1973 33 0
5050 0.099189438690486839 -0.010390405223482307 1.6016281135581396 255 255 247 0.5176732871184333 49 1895 77 2202 55 1976
5051 -0.0051193480220125681 -0.045391932934918985 1.5867157327398145 91 75 54 0.44224261545357796 63 1641 82 1925 55 1980
5052 0.070824000788223498 0.22202675094683871 2.0221593950856125 167 195 141 0.25738712045886847 34 2260 49 1903 63 1885 55 1988
5053 -0.04288413167247724 0.058163475554090807 1.7930882734688485 73 143 78 0.20445895900272471 49 1686 55 1990
5054 -0.07591250270402855 0.0030561169047792769 1.7565389659115764 67 130 69 0.10429606885096628 49 1905 55 1991 43 2060
5055 0.064105079127661821 0.95412555437833391 2.283935109353914 210 184 157 1.3443923503429016 82 2250 55 1996 43 1831 61 1979 53 1572
5056 -0.16321982117021397 0.034770950224530084 1.9064833965731713 75 148 81 0.57610886620700918 49 1909 63 1900 55 1999 43 2071
5057 -0.24174126245020788 -0.055064142734672722 1.8435230246685821 66 127 66 0.094198157997372661 49 1916 55 2006 43 2072 77 2228
5058 0.099604877178719395 0.50402561661556489 2.8004812004157849 178 174 115 0.021124186795545286 49 1917 63 1673 55 2007
5059 -0.0027464704513560645 1.0357325150454495 2.5915097067094832 232 221 200 0.94021958969668906 49 1911 82 2260 55 2012 43 2085 61 2261 76 2034 33 1400 79 1779
5060 -0.034851372870803296 0.69594352311810892 2.7188414522499276 218 197 129 0.53052797459108691 49 1922 55 2018 43 2088
5062 -0.35981052822830634 -0.089076749952213249 1.9641719082187106 69 136 74 0.092307431043660571 49 1931 55 2025
5065 -0.23430385157778366 0.45130550558899479 2.6829305301248723 38 100 49 0.35535867192813231 62 1811 63 1929 55 2036 78 1034
5069 -0.46450147687774312 -0.11471836796003336 2.2089655087184243 129 136 90 0.68069715243508322 49 1955 55 2044 43 2094 61 2415 33 1623
5072 -0.80159031954278515 0.67654644026069755 2.6061306327771225 207 197 121 0.26428665186865302 82 2118 55 2101 76 1902
5074 -0.91883775427058945 0.18651329688394941 2.1850256212547281 255 251 210 0.19749867219736653 49 2019 55 2105 43 2153
5076 -0.85154582445048221 0.91603621782943478 2.6274382233980105 232 217 137 0.098798172875930054 34 2208 55 2112
5077 -0.88661575868107967 0.72458614427218715 2.6118468014051697 66 108 54 0.21916704638012741 49 2018 63 2013 55 2113 43 2175
5079 -1.1003615440145351 0.37352367399262554 2.5841517568751766 98 85 59 0.96581618826439353 49 2034 55 2131 53 1919 79 2124 93 1779 65 1850 18 1731
5080 0.132551816692068 0.120580571708858 1.7897651017927161 215 215 163 0.2336042753454991 49 2055 55 2149 33 1549
5081 0.29228461767714531 0.39111799338192604 2.2488000297202912 238 206 176 0.87914005647087967 82 2232 55 2151 85 2120 43 2061
5082 -0.033052935209890416 -0.085754787117183026 1.5832901616855224 209 205 203 0.6723956225640163 82 2472 55 2152 43 2313 76 2256 65 2012 79 2170 93 1831 18 1784
5083 0.14197398703584035 0.57265908320905423 2.2556961514454694 70 116 44 0.18362417012290921 49 2065 63 1891 55 2155
5084 -0.068715787148009549 0.15323289240350663 2.0564378143574991 151 178 123 0.1014301712598103 49 2073 63 1895 55 2158
5085 0.17755918210720861 0.41321310418938784 2.7571632886504878 203 210 228 0.32222983426190221 49 1910 63 2049 55 2159
5086 -0.014636712613946154 1.0719903423361086 2.6357213846101191 242 235 215 0.78798499602085381 49 2075 82 2416 55 2166 43 2235 79 1988 53 1784 93 1574 18 1519
5088 -0.027299723244265925 0.87816980261535427 2.7341340490412382 185 176 121 0.41600663843222874 63 1920 55 2168 44 1271 8 1610 50 1046
5089 -0.2207399176333083 0.30131206248987386 2.7258406678353033 169 158 101 0.25048357920916037 49 2101 55 2180 33 1727
5090 -0.2656727655630024 1.4000889167909394 2.8722525133279966 0 0 0 1.2554713694221331 49 1942 55 2194
5094 -1.0309132610961984 0.98893255655334356 2.7555087410164485 90 161 77 1.1320653025771743 49 2141 43 2420 61 2731 82 2613 76 2437 60 2498 79 2411
5095 -1.0721225546701223 0.75038625957100891 2.6401677157347629 230 218 135 0.52113688075356723 49 2144 63 2119 55 2234 33 1758 41 1448 94 1135
5097 0.095706494660879007 0.093485812656248307 1.7609790629129918 75 137 69 1.0885098560031663 49 2154 55 2244 43 2315 61 2493 85 2408 76 2259 60 2281 65 1902
5098 0.11640782692923234 0.16401161594035329 1.8515004921779874 181 202 141 0.26193877302993962 49 2057 63 2131 55 2245
5099 -0.075861172587318906 0.2540915900845514 2.7744206043047352 68 116 61 1.3803394222510643 49 2170 55 2254 33 1805
5100 -0.057147412494223254 0.8340903780821588 2.7186552638234844 51 93 42 0.87384152173608087 49 2082 63 2142 55 2255 43 2243 61 2429 76 2044 33 1712 52 1438 19 1077 41 1221
5101 -0.33814136719930138 0.55891268655559956 2.6505168525347638 164 153 99 1.1999479153752599 16 2064 55 2264 43 2251 61 2436 8 1673 33 1721 30 1121
5102 -0.60637789931226049 -0.18226332443904997 2.2513613157034067 252 230 179 1.1597697175586628 49 2239 55 2273 43 2391
5103 -0.59716442398151337 1.1514142086408152 2.6748696124225431 88 158 70 0.49107093435891874 49 2186 77 2598 55 2281 33 1719
5104 -0.7190163751799451 0.53054944232744095 2.6125839054365736 215 202 125 0.82910161603829202 62 1952 55 2284 43 2348 52 1779 65 1968 78 1254 50 1186
5105 -0.91368863927719635 0.70256774098209429 2.6041469980511889 126 140 81 0.93498523890922225 16 2071 55 2289
5106 -0.87087701242811089 1.1855115805785985 2.7474236138514661 0 0 0 1.5258488857574946 49 2130 54 1618 62 1870
5108 -0.98886313220590749 1.0744607253595564 2.8289099958001827 195 175 161 0.36239478019214871 49 2247 63 2187 55 2295
5109 -1.0384422213001281 1.0298731770970047 2.8852765768284012 198 189 189 0.061990832863010825 49 2202 55 2296
5110 -1.1028779532078947 0.55213127211801749 2.6533960202107125 204 194 107 0.34958906039819587 49 2204 55 2297 43 2356 33 1824 63 2117 52 1796
5111 0.29286834659404642 0.21131150410821048 1.8270332781417635 105 103 109 0.98661376159410774 49 2214 55 2303 43 2362 76 2321
5112 0.06893778427282031 0.050305215612150365 1.7341499400771694 173 185 128 0.2535768240256332 49 2155 55 2306 43 2367
5113 -0.098413201645123224 0.74584112831511717 2.7076513673019642 145 149 91 0.61493894129538729 49 2225 55 2313 8 1730 33 1796 44 1377 30 1181 50 1211
5114 -0.33689585528392318 0.015381766752554392 2.2209926060504031 143 171 117 1.0442758584937315 49 2229 63 2208 55 2316 43 2442
5115 0.004240670165196761 0.53283396313350417 3.7135122363441977 50 95 48 0.61787889007535213 82 2553 55 2318
5116 -0.96842391679266315 1.0101878812391192 2.6822450987862405 90 161 76 1.0743836596953649 49 2246 55 2333 33 1816
5118 -1.1732208686156083 0.49728803968686247 2.6892601273536285 86 109 51 0.54346309779937529 49 2255 55 2338 43 2422 61 2583
5119 -1.2993645909451548 0.71970462564404381 2.844414062030352 209 190 177 1.4339295716520584 49 2306 55 2342 43 2543 76 2492 61 2743
5121 -0.019419376850424941 0.21440886452841801 2.1380295632143906 80 163 92 0.56140679371729474 49 2220 55 2346 43 2433
5122 -0.0031174947628934968 0.94869204061891788 2.5200290844100461 204 199 204 2.1052099890388383 49 2263 55 2350 43 2493 61 2687 33 1917
5123 0.010902347859764919 0.4412236670795458 2.759669104742835 92 123 71 1.1802370387101633 77 2614 55 2351 9 1318
5124 -0.026456822398393337 0.75925940434105976 2.7217876085672099 61 109 55 0.44492644925756458 49 2265 55 2354 43 2381
5125 -0.026456822398393337 0.75925940434105976 2.7217876085672099 61 109 55 0.44492644925756458 49 2266 55 2355 43 2380
5128 -0.67773514352331687 0.59218189965746881 2.6200803796015832 50 90 46 1.052539898797064 49 2295 82 2597 55 2385 61 2571 76 2358 65 2054
5134 0.092456957373317286 0.840227383029718 2.3129817165979021 214 202 196 1.2068881280295158 49 2378 55 2468 43 2557 61 2746 61 2751
5135 -0.3725202151032258 -0.21480166289352309 1.8199625101113914 104 119 79 1.69444745611148 49 2367 63 2333 82 2624 55 2469 43 2545 61 2735 76 2446 8 1818 33 1921 26 2234 79 2251 27 1913 82 2479 65 2209 93 2108 18 2060 52 2002
5136 -0.049927293435184046 1.2156053427332734 2.748345810758396 0 0 0 1.994034885089053 49 2366 55 2470 43 2498 82 2704 61 2694 76 2457 60 2453 33 1949 52 2026 19 1850
5137 -0.086386872399779421 0.93546423922893118 2.7131459085864789 87 87 44 1.2212859720921583 49 2317 82 2647 55 2471 43 2497
5138 -0.42587764876522816 -0.0096340545821330184 2.6757589456326962 184 182 180 0.40405462974045181 63 2288 55 2473
5139 0.19340189601716351 0.50402400552696935 2.6031513262729278 0 0 0 1.1112359481084519 82 2703 55 2477
5140 0.017145196743495267 0.6591487499397406 2.750219678987941 170 169 109 1.493085801486848 49 2385 61 2747 76 2501 52 2027 41 1757 9 1459
5142 -0.62033260596369277 -0.25155382871962867 2.1205280702690783 0 0 0 1.7525849828364428 63 2348 55 2486
5143 -1.2765723311511943 0.85560041342654025 2.9530719108885415 0 0 0 1.9210532405041743 63 2345 55 2489 61 2753 76 2511
5144 0.35240760442311864 0.45444529656065735 2.1573960178714193 0 0 0 1.719094330515119 43 2564 61 2750 76 2512 65 2267 93 2155 18 2102 52 2046 13 1576 96 1519 71 1547
5145 -1.3025286687415558 0.65805441090042849 2.9288255377263659 184 162 139 0.8904717046835775 63 2351 55 2492
5146 0.21438654479044028 0.19402311464634953 1.6188655849058935 201 202 213 1.1753438327944059 63 2352 55 2494
5148 -0.7737793471509139 1.0877919973497967 2.7163180950206254 160 188 110 1.9872338060102315 49 2393 55 2497 33 1975
5149 -0.014565705962511721 -0.026454033510516853 1.6947415782902071 36 64 37 0.17987741489909781 35 46 77 56 37 45 82 66 55 80 49 83 63 783 85 44 43 62 61 49
5150 -0.13067504778243491 1.1055226223426722 2.7418889357712408 212 204 206 1.142398320574312 2 658 16 651 49 245 63 292 55 272 35 734 82 513
5151 -0.39524219485442497 0.81314165282421946 2.6355293313225894 67 108 59 0.18318432344346297 2 1418 35 1698 12 1297 16 1458 55 1543 49 1455 62 1437 63 1461 77 1753 43 1570 98 1074 8 1056 31 1022 83 1254 51 798 78 788 50 748 36 433
5152 -0.13207716857085708 1.0643915870133978 2.7141867257008143 149 140 138 1.081081825154008 74 2139 77 2312 82 2274 55 2031 49 1928 63 1932 43 2096 61 2275 76 1830 49 1726 64 2016 60 2217 83 1543 33 1406 75 1221 46 737 39 394
5153 -0.62064332322837923 0.84028545184024961 2.611364172903115 66 113 56 0.20552969550399725 95 1530 63 1526 34 1702 77 1814 82 1773 55 1621 35 1709 59 1719 37 1716
5154 -0.39165007681534331 0.97465712800248328 2.648447651199286 86 129 69 0.13133948253454938 59 607 100 555 55 406 35 662 77 590 37 562
5156 -0.05280717687514367 -0.040541706028614274 1.7008988560177494 57 107 59 0.2253907525484096 16 732 95 819 2 735 74 827 34 814 35 866 59 856 55 827 77 882 82 901 49 817 43 840 61 865 76 791 60 54
5157 -0.067407855194999922 1.120986548500118 2.6985065520098495 247 242 230 0.64059166153076796 49 890 82 1707 55 1460 63 1380 77 2111 43 1510 61 1122 76 351 60 1547 33 705 79 1484 26 1796 20 1427
5158 -0.96919189476491119 0.85739852238354908 2.640452127585974 132 127 77 0.48076482322533504 2 1385 16 1475 49 1620 54 1094 55 1716 44 526
5159 -0.23275704643134926 0.26409366875653711 2.7241047232527986 35 67 33 0.23382545520538073 2 1271 95 973 62 1284 54 1263 55 1001 49 1000 63 935 31 1146
5160 -0.50524882943449967 0.57047735790762177 2.6237940196794187 59 99 51 0.2309032085211265 95 1081 62 916 16 971 54 780 63 1056 74 1111 34 1137 35 1187 12 862 2 935 55 1100 77 1226 82 1221 43 1131 98 691 8 777 31 721 44 584 50 542 36 476
5161 -1.0490682187451184 0.56145367730302098 2.6372471327483669 75 129 57 1.6605997681195628 16 2065 49 2249 62 1950 54 1791 63 2185 74 2200 34 2286 12 1777 82 2510 55 2335 82 2561 95 2185 43 2417 61 2580 76 2370 98 1628 8 1672 31 1589 60 2312 83 1594 33 1869 65 2136 93 1973 39 612 52 1933 19 1799 41 1676 9 1332 30 1111
5162 -1.1038823300058282 0.56479158645089833 2.6509533921909751 89 142 64 0.22838335941408708 54 17 63 685 55 1281 77 686 37 546 98 24 8 226
5163 -1.2096504894518514 0.63439934608333548 2.6658281487602955 96 159 72 0.22180603736137991 62 271 77 1392 55 1299 16 438 63 704 43 1332 19 935
5164 -0.18002202569628958 0.94000437921945756 2.6871263426719163 129 121 75 0.47749712275849943 62 1473 63 1397 55 1487 37 1699 82 1703 98 1148 12 1365
5165 0.16668707478777189 0.039825874473095248 1.6099627959718319 254 254 254 1.600708606024051 34 1395 77 1452 55 1313 59 19 100 21
5166 0.070437477860042272 -0.079939635508824061 1.5419130616071246 126 97 70 1.114125762761949 16 1565 95 1638 55 1319 62 1169 63 1231 54 946 98 799 8 978 31 925
5167 -0.22531503056454524 1.2888960335061452 2.7450859917893409 98 113 67 0.57313095107024326 63 1948 77 2464 55 2043 49 1933 82 2299 43 2109 61 2294 50 904 36 659
5168 -0.038814695110739206 0.67161885449331937 2.7200143902964697 112 131 74 1.3794908410160254 49 2267 82 2586 55 2358 2 2079 62 2089 54 1935 34 2442 74 2361 59 2515 63 2235 77 2621 37 2523 43 2444 98 1708 41 1568 94 1099
5169 -0.68619477593438394 0.75697530303512872 2.6064536890310617 76 129 64 0.18814512463261818 35 1691 100 1600 55 1633 16 1441 49 1539 62 1399 12 1235 83 1205
5170 -1.0823228251048551 0.44952624969872979 2.6285665385372305 222 213 218 1.7792380780587125 49 1646 63 1857 55 1731 2 857 16 942 62 803 2 854 54 646 63 679 74 1063 12 148 98 562 8 805 31 636 83 760
5172 -0.48921730981968636 0.35152636955543287 2.6581470628644981 194 171 102 0.20238934677306886 2 1767 54 1641 74 2053 34 2147 35 2149 55 2066 49 1970 62 1790 63 1964 77 2282 95 1956 12 1669 43 2120 98 1479 8 1635 16 1969 31 1472 33 1627 44 1217 78 1133 30 1030 51 1201 50 1152 88 942 36 1002
5173 -0.6727343263385317 0.77756410453020219 2.6040142708974119 69 119 60 0.12365284852320609 77 2333 82 2301 55 2096 95 2014 34 2192 2 1816 43 2147
5174 -0.89063815406542757 0.485671286778806 2.626347141287356 133 124 73 0.2552256688419906 77 2449 82 2437 55 2227 49 2136 63 2108
5175 -0.89067425870816619 0.4851889878135161 2.6238192435482168 155 146 86 0.330284684499835 34 2169 35 2160 55 2228 49 2137 77 2450 37 2256 59 2243 74 2066 82 2438
5176 -0.84317816249110189 0.5262832990718338 2.6227930876671102 74 106 54 0.96511844268734626 2 2062 16 2157 95 2295 62 2058 54 1882 63 2321 74 2407 34 2497 35 2502 77 2700 12 1923 59 2576 37 2586 55 2448 49 2349 82 2667 85 2527 43 2525 98 1713 8 1789 31 1690 83 1872
5177 -0.31540092212244031 0.96331971644903114 2.6572111659630377 174 180 109 2.0381323712780928 62 1073 55 1043 54 874 55 1048 61 493 39 713 7 910 88 588
5178 0.04327746827157887 0.51580921137334668 2.7939769391771496 0 0 0 0.049183162472430084 16 386 95 422
5179 -0.47088877720310957 -0.099398090386582247 2.2619326890962466 59 119 65 0.22778426604861396 49 418 55 353
5180 -0.47457946386609778 0.79319587730291918 2.6214145785044161 55 95 51 0.10160489010766116 49 421 55 435 43 447 76 444
5181 -0.57777047926403369 0.80873385900324635 2.6116221698010778 56 93 49 0.18977960913441461 74 580 55 509
5182 -0.27444476187309824 0.74894854230254104 4.5526050724169567 53 89 49 3.1338441715224135 35 797 55 531
5183 -0.61084584998140046 1.0095181286536303 2.634172049785088 88 135 65 0.1568670447712712 49 468 82 650 55 550
5184 -0.59976377939025238 0.83062906224197663 3.1877334422433865 68 103 57 0.42557136368835169 37 663 98 218
5185 -0.081828914853918425 -0.085946775239516479 1.5933935816533094 101 99 53 0.23086889737754768 49 90 55 817
5186 -0.35244249963736768 0.27731227294201011 4.5539827542137887 155 149 88 1.6807448981631019 35 674 55 1159
5187 -0.98388382914034922 0.5329272586370758 2.6272699415121843 83 118 58 0.2853492983305071 63 653 55 1263 85 511
5188 -0.37376548824276895 0.55886684282417631 2.648907084291503 48 90 46 0.1223987509976379 2 1346 55 1530 8 1135 62 1365 33 1168 51 841
5189 -0.89939458181206422 0.76775788248512711 2.6186045808035012 67 118 57 0.011870604710009072 49 1605 55 1693
5190 -0.097198091984738708 0.033705337847630627 1.8246293417747868 70 140 76 0.39932486337158268 49 1695 63 1662 55 1790 33 1080
5192 -0.44199825398876369 0.5201948042525073 2.6328091600518961 95 110 63 0.083355383012160958 49 1788 55 1878 43 1912
5193 0.22134005582328281 0.11241396960249869 1.6878166143867288 227 229 244 0.42959410443724844 82 25 85 27 20 25 100 810
5194 0.013011864971480547 -0.00053028253933711661 1.7062398847616591 51 103 59 0.13971269321597624 100 50 85 52
5195 -0.098598366065886164 -0.057994588355159304 1.7145951406061477 54 106 60 0.080893966983771451 82 85 85 59 61 78
5196 -0.13229779195452454 -0.040189097194783946 1.7465585993433839 188 175 123 0.27265482476886821 82 104 85 80 52 66
5198 0.015013198152050142 0.066987320056050251 1.7779658591163181 74 118 67 0.15739660221953594 100 77 85 94 7 39
5200 -0.95366889079163675 1.8526966543390262 0.4448575775593564 62 101 50 0.7369627239475347 59 612 85 123
5201 -0.95366889079163675 1.8526966543390262 0.4448575775593564 62 101 50 0.7369627239475347 59 611 85 124
5202 0.30617952782055746 0.23095569242036668 1.9385102114321009 89 100 77 0.12863003407954288 100 136 85 129 64 134
5204 -0.37827844355253437 -0.16235166053873584 1.89360307741459 113 130 81 0.0055542878203479968 82 192 85 135
5209 -0.14846193689923734 0.054251237817605456 1.9170502846984936 168 169 123 0.19647798260587232 82 169 85 148 26 107
5210 -0.406870965418615 -0.19027350510435648 1.9498731445814246 127 126 83 0.22719456313996889 37 124 85 150
5212 -0.3486429131879899 0.95882468655306852 1.3022788121805879 181 188 140 0.96213858822703224 62 646 85 156
5213 -0.035222718937400574 0.13207800932462815 1.9425827084627305 158 165 115 0.26551998808904098 34 156 85 158
5215 -0.28487057789580178 0.76818194260124251 1.4563074408537737 204 200 147 1.3876590435512886 62 537 85 160
5216 0.28422182365968152 0.27325554868177393 2.0605216349128033 155 155 168 0.41708854228368225 37 181 85 174 26 150
5217 -0.15280381948137495 0.078243346613699666 1.9919819166513457 56 105 58 0.081015707322843827 59 184 85 179
5218 -0.085918875372875847 0.12096746311000633 1.9966444959977732 56 109 60 0.14493206518180704 100 159 85 180 64 150 60 161 26 145 79 150
5226 -0.43574415016691748 -0.15059543306907375 2.0737147480555973 49 103 51 0.13146831583503693 82 1002 85 201 60 894
5227 -0.18603574975804288 0.077989991524634206 2.0661100478563541 77 118 70 0.086984889283158714 100 175 85 204 60 195
5229 -0.5762367100245871 0.71215006248512147 1.4873704950705082 57 108 59 2.0277519314152057 62 429 85 210
5230 0.29646604868055304 0.32912311951203932 2.1764460544806372 249 242 221 0.1535794461171982 82 165 85 218 60 187
5231 -0.53379998845629084 -0.20543293781913335 2.1124634575638264 109 86 65 0.2805434847233409 100 152 85 220
5237 0.055598071919458189 0.28567878680270253 2.2706011800390953 150 159 111 0.14780028933730266 100 263 85 276
5238 0.055697697162716234 0.28562870479000696 2.2704456542808189 150 159 111 0.13089138474852641 100 264 85 277 80 164
5241 0.21642229319424894 0.32602013209095604 2.3916534119016601 55 76 52 0.65535498181238405 82 218 85 298 60 260 26 282
5242 0.099734762049294559 0.32050819853261109 2.4256931752030648 63 123 68 0.046784608278729239 100 999 85 315
5243 -0.40044997723657655 0.0032730762759326237 2.4677928240637588 78 112 81 1.5074598811849744 82 1073 100 293 85 332 61 1059
5244 0.16067669258735456 0.37362106343154222 2.622205342668861 184 189 204 0.090937949647052527 37 340 85 357 60 324
5245 0.073073258683811523 0.31884355762970518 2.6168174535892126 140 140 145 0.16401047218639161 85 358 60 334 79 341 53 285
5246 -0.30556558377376969 0.083001582084705983 2.6227508276682867 185 187 199 0.48754587994220627 100 345 85 363 64 303 26 375 27 888 80 218
5248 -0.02613041840189638 0.94834273086836718 2.2965740977488185 198 212 234 0.78885759214288864 16 1498 95 1540 85 413
5249 -0.37299492302126891 0.64789512282646611 2.6411641971221655 87 140 71 0.1223450353480212 37 463 85 447
5250 0.084443456968199368 -0.12855559072225392 3.6800160158359323 87 140 71 0.60792366823412702 62 790 85 448
5251 -0.020651766594537949 1.0502643115337242 2.6163815266657231 96 78 52 0.40002729283802935 35 689 85 470 60 407 79 390 26 1001 20 960
5253 -0.8248353674104224 0.59952493771162707 2.6112282844338193 99 147 73 0.093823697126584199 59 519 85 498
5256 -0.97267456528123897 0.62615726107508662 2.6193680451474406 99 151 74 0.073111912470748372 59 560 85 529
5261 -0.29239207747656371 1.1146917416668101 2.6886393801798376 84 147 80 0.10338462608721592 37 610 100 606 85 552
5262 -0.97186792835638447 0.74765052130896192 2.6223817041733564 251 229 139 0.11443238606977624 2 416 85 574 76 629
5264 -0.14540758162099651 1.208116845148248 2.7671885559760394 190 232 137 0.12451028829119168 100 1263 85 579
5265 -1.0084603879839453 0.75743315170515435 2.6292225681636019 93 136 72 0.28480560662701521 77 724 82 758 85 593
5266 -0.82275813036412482 0.54255577244041941 3.0190272746118221 87 136 70 1.2197162458041455 62 306 85 594
5268 -0.24092562293504571 1.2277403772232345 2.7205912990953225 228 221 143 0.0052669031101233886 37 659 85 601
5270 -0.62708008478079247 0.70248521900023042 3.0150193951735971 88 133 71 1.5337509333458161 62 410 85 607 54 249 13 372
5271 -0.48464975322005377 1.1407920278446162 2.6727282619290884 217 212 131 0.14597942662118712 74 721 85 612
5272 -0.84801901649105038 0.92407949397675015 2.6320470876416522 253 242 148 0.34285212249384195 77 735 85 614 64 489
5275 -0.9460675188275629 0.86336886767982901 2.6377430155202055 248 227 136 0.11697582650104038 100 561 85 618 52 463
5279 -0.80277218807862005 0.99815719754371457 2.6422896434919716 249 230 143 0.19308554379265014 37 657 85 638 61 670 43 637
5281 -0.60368490672594943 0.79518947010768892 3.0392881731660819 249 236 148 0.80966674191841226 54 263 85 640
5284 -0.79195423297060907 1.0347027799951263 2.6487128974834744 247 230 143 0.074355234270199161 37 669 85 646
5285 -0.58577729339978946 1.1664974663383447 2.6859635800207919 67 119 66 0.12512295655034875 100 662 85 652
5286 -0.81331295549046345 0.33982685766654608 3.5273095225719331 215 209 126 0.48435737122739952 54 163 85 660
5287 -0.81331295549046345 0.33982685766654608 3.5273095225719331 215 209 126 0.48435737122739952 54 162 85 661
5288 -0.79027964446762455 1.1127285513485252 2.6794523385951927 180 190 116 0.013593552082218793 100 659 85 674
5290 -0.46642032442090092 1.2941118655389585 2.7684400280244175 76 149 82 0.54280776976929057 100 1298 85 684 64 1503 26 1575 27 1625 7 1292 80 1143 46 758
5291 -1.3358673908123273 0.66569393790425258 2.8244350022600964 93 79 34 0.1207077588058401 82 833 85 696 43 778
5292 -0.89949200883384717 1.1104172232390892 2.7225342815039406 59 117 64 0.24743719311194864 37 727 100 695 85 705
5293 -0.68279550321833582 1.2332386796926154 2.7763535095637564 191 196 150 0.16965311189471963 100 733 85 712 64 1124 60 651 26 580 27 1031
5294 -0.76859179739776118 1.1952746708799684 2.7495040403860345 198 196 149 0.21713609358152097 100 725 85 715 64 631 7 535 26 1155 75 397
5295 -0.41028622811263143 1.3144432693022672 2.9305801424917268 217 221 236 0.35791015263644543 100 751 85 719 64 1161 26 1608 20 1540 27 1429
5296 -0.90439833826376026 1.1181800821891137 2.7517552014750501 66 131 72 0.28826961648253185 100 708 85 721 60 686 26 1161 20 1102
5297 -0.41600501344618235 1.3126413265831862 2.9476972661349294 118 96 76 0.17072679339670355 100 756 85 723 60 647 26 1611 64 1527 27 1431 7 1325 80 1164 75 1078
5298 -0.91367901816609298 1.1132132698448423 2.760452824920113 160 160 118 0.19915163938299199 37 731 85 724 60 691 79 639 26 1167 20 1112 53 514 93 550
5299 -0.30068640062495228 1.385967708974249 3.0062084742199251 90 68 46 0.23563466171858552 100 776 85 738 64 699
5300 -0.2644732196702817 -0.19773291182272507 1.695378348816694 200 202 215 0.48881576509901875 35 843 59 841 85 821 83 645
5302 -0.015591907400419741 0.065582606176945654 1.7946378316353095 52 99 54 0.17843008728206339 37 851 85 850 76 62 64 78
5303 -0.27990522100901083 -0.096086049461268239 1.8303567394020221 62 114 60 0.11311905374258488 59 879 85 860 65 759 76 842
5304 0.37534012766531011 0.28367008049584203 1.9251968706717852 171 169 177 0.25280762433984383 95 897 20 804
5308 0.26462465105978483 0.25819402585336898 2.0778057569827668 177 194 145 0.31113665006105368 100 1429 85 892 64 824
5311 -0.016783274798148853 0.18640921706321373 2.0590084444508538 55 109 59 0.070397343999044529 100 897 85 907
5312 -0.15998061965061167 0.10151141617638736 2.0864163978078123 56 111 60 0.17294902141578034 37 911 85 918 60 885 79 877 26 842 20 845 27 767
5314 0.076435595809713611 0.30076867274801738 2.3137336624562748 57 106 55 0.078115941908377617 100 978 85 964
5316 -0.49439629633761939 -0.11143006741087037 2.3841527252668806 39 93 49 0.26669703560667257 82 1064 85 979 60 1478 26 924 20 920
5317 -0.21666148144569666 0.14501289077296939 2.560657927878542 148 140 121 0.31123392090793817 37 991 85 997 60 994
5318 -0.3954053596749722 0.03036501311335817 2.6076121649639177 172 172 180 0.71834910091957005 100 1512 85 1012 64 1315 26 1467 20 1391 75 936
5319 -0.59596824485526223 -0.075576487566925615 2.770985893661126 117 119 66 0.17944418231383832 37 1585 85 1051 98 1294
5320 -1.0050317023014801 0.43940889514517467 2.6741088930433285 109 189 82 0.48684913758912635 37 489 85 1146 98 39
5321 -0.61885146331303476 0.83684095501371247 2.6119322156161342 96 142 74 0.23768102552109777 62 1006 85 1154
5322 -0.078088414509569243 -0.19668160854352057 4.1802658797649546 78 136 69 1.4558456229084107 100 1183 85 1172
5325 -1.0362387129710762 0.6664433113655015 2.6243790583692519 99 143 71 0.051140412991363737 82 1356 85 1185
5326 -0.29654930459484086 1.1338620837039204 2.7053276381405631 215 213 133 0.4454874230323721 37 1761 85 1189
5327 -1.2022845232428108 0.49399592754596772 2.7040173478312761 161 209 97 0.41752910915549263 37 1216 85 1190 60 1166
5329 -0.66859159145023861 1.0119816909215087 2.6371385172128123 83 136 73 0.055415896577358036 37 1284 85 1210
