# 3D point list with one line of data per point:
#   POINT3D_ID, X, Y, Z, R, G, B, ERROR, TRACK[] as (IMAGE_ID, POINT2D_IDX)
# Number of points: 374, mean track length: 5.1439352107491256
3654 1.180841146278147 1.8941697378713971 2.5360331031645025 243 224 182 0.035126137042558347 44 770 92 832
3655 -0.25169437795863686 0.84839066596923396 2.3588440919365619 255 207 53 0.3049902419675446 44 868 92 870 84 378
3656 0.81933899158977475 1.1450729861058695 3.0586088298205443 111 75 60 0.66044416077267332 43 805 82 551 92 903 42 692
3657 1.3822075333056509 1.691059750552603 2.6235007838219571 249 228 184 0.19650815260720442 44 846 92 919
3658 -0.68427912703523108 0.29665559217151788 2.2081596344953187 0 0 0 1.1984373219488802 44 852 92 921 45 912 100 1014 80 733 57 953 84 552
3659 0.61870947669087972 0.87639120477279875 1.5546337501511094 15 16 17 0.50614458922113958 44 896 92 961 86 927 28 770
3660 0.61870947669087972 0.87639120477279875 1.5546337501511094 15 16 17 0.50614458922113958 44 897 92 962 86 928 28 769
3661 0.44752917431294498 1.1848901312972713 2.9876374149491989 38 35 30 0.33776085732448624 44 936 92 964
3662 -0.30431384481336488 0.90030078102987476 2.2950777838722702 251 202 50 0.86285790172674803 44 922 92 989 86 962 45 970 100 1023 39 887 28 877 31 683
3663 -0.48146799451635575 0.58566718942441454 2.8792799970885024 27 31 37 0.47367136654949293 44 920 92 1010 45 1019
3664 1.1055797262187217 1.108525550608179 3.1219835306123245 0 0 0 1.5856456628422209 44 984 92 1046 84 654
3666 -0.3408671642001555 0.55896826638784813 1.9784219168749206 255 236 61 1.6214608850194292 44 985 92 1050 84 648 42 795
3668 0.85815244515639177 1.4032203677690751 2.0231884822088735 255 221 63 0.04068431716258343 44 988 92 1052
3669 0.85815244515639177 1.403220367769076 2.0231884822088748 255 221 63 0.04068431716258572 44 989 92 1053
3670 1.2002993039500076 1.4313323705104501 2.9102857565194307 52 36 33 0.41013908229635659 34 59 54 77 32 197 11 268 92 245 15 249 24 234 93 244 76 300 18 228 49 210 23 585 42 165 99 479 75 442 89 422
3671 -0.54875878074969553 0.61001573332599945 3.3445373029567369 44 37 34 0.41765016069744049 68 526 44 227 92 273 5 808 78 433 59 801 86 61
3673 0.87838362383858681 2.2322222615344129 2.3147324758752674 220 174 91 2.1594015206621364 60 1170 88 1039 92 1044 87 1423 40 1302
3674 -0.49084717201870287 1.7875449161869343 2.5198521824957911 84 94 96 0.30863386188438596 94 595 15 364 87 686 40 591 24 426 93 431 7 379 26 733 60 731 55 887 53 547 46 922 64 924 41 910 17 918 95 916 97 838 51 811 36 709 30 504 98 981 83 481 91 719 9 914 29 663 82 343 5 556 34 722 78 376 59 542 88 606 68 586 21 561 44 275 92 294 54 746 43 546 13 626
3675 0.87893893233332299 2.4016499824454085 2.2112004911206502 227 212 176 0.94395929510579868 94 1163 87 1288 40 1159 93 1116 55 1301 46 1363 41 1079 17 847 95 829 97 358 98 958 83 943 91 1141 9 1449 29 517 44 756 68 789 92 789 26 719 53 473 68 671 82 41 34 368 78 21 54 332 59 26 86 726 80 414 39 712 28 713 31 528 50 523 67 408 84 546
3678 -0.38427481029460092 1.2106683523787953 2.1945692951951794 154 164 190 0.86668850665842323 94 1116 87 1246 40 1118 24 1014 15 1021 93 1010 7 661 55 1404 46 1474 64 1151 9 1298 41 1066 17 1046 95 752 97 263 51 684 90 601 36 132 98 810 83 781 91 1062 29 528 79 499 44 794 92 871 88 859 68 840 86 682 18 1118 13 887 49 1022 3 774 50 367 67 337
3679 -0.58822449983887748 1.7211471354220191 2.5599394345941002 35 27 26 0.73441812973302245 64 1168 41 1427 95 1287 97 1168 36 890 30 685 29 1105 33 880 5 1051 21 1053 94 903 15 693 87 1033 40 913 24 766 93 765 7 224 26 731 60 732 53 706 60 915 98 514 83 462 91 709 9 1202 82 493 34 916 88 611 68 713 44 476 92 519 78 391 59 545 81 429 2 809 18 737 13 252 49 595 23 933
3680 0.73585381157741925 0.69496552641920439 1.6870619851846103 68 68 70 0.27258896693365731 32 404 76 68
3681 0.67858027095722562 1.2422195443782509 3.0429343285505843 226 208 168 0.13702143919837725 11 271 76 366
3682 0.83803910304086615 1.4463511523216754 1.5419799181304981 219 138 35 0.04046266588283922 32 314 76 445 25 263
3684 1.0201103116175423 1.3196665595625277 1.6777378889633543 254 217 61 0.73132254417677423 32 343 76 469 25 283
3685 0.46757107374671097 0.71198078466774506 1.8847582704874879 243 211 81 0.15618317296604725 32 431 76 527 25 333
3686 -0.3440936846754214 0.6057667409691242 2.5555221637392784 254 220 58 0.24919523856812145 11 482 76 593 25 394
3687 0.85652894184481165 1.2588306564558762 3.009871440884988 104 70 52 0.45976063182189547 4 434 76 605 25 420 47 120
3688 0.68456441938817802 1.3534656004980323 1.5003650648916083 154 134 43 1.8233448386769087 43 616 76 650 25 465
3689 0.69490287292242559 0.94738507839267816 1.5320246973109388 158 137 42 0.047008018463308439 43 631 76 659 25 476
3690 0.98186162908861629 1.3009790237948642 1.6816123610986955 255 232 67 0.3405632729661387 32 551 43 399 76 664 25 478
3691 0.27073077316730904 1.0947220658741659 2.2335618747607886 103 87 51 0.40303571795369236 32 859 76 709 25 534
3692 -0.2054315372661954 0.99760983384016821 2.2590498590413124 152 116 35 0.067632812475687865 32 649 76 712 25 535
3693 0.38573194281918161 0.75940088933584105 2.1405764163243322 187 137 32 0.13136633658579464 32 673 76 732 25 363
3694 1.1930804025770394 1.3588655773458242 2.9623132578418199 149 100 74 0.086616692223087044 32 721 76 853 25 653
3695 1.1272656725834025 1.302237757779064 2.9474989249456298 149 100 75 0.024837327257367606 32 733 76 856 25 657
3696 -0.6509728586133533 0.65607648702644572 2.9661797991252752 117 115 103 1.1266376149134787 32 781 76 879 25 675 45 514
3698 0.90297426136854908 1.4714568677223165 1.5350881861619581 1 1 0 0.28506136718223907 11 927 76 898 25 697 45 851 32 943
3699 1.0806131472289084 1.4186514464939541 1.6396025734765944 242 218 65 0.72586552379996494 32 803 76 906 25 475
3700 0.96300836820513225 1.3397227164060879 1.6542976701464018 255 218 53 0.044218208028737847 32 804 76 908 25 707
3701 1.1349417303439515 0.85147838452109548 1.6458390224180688 255 237 74 2.1902535740548945 43 618 76 919
3703 -0.28103360678424488 0.8398911386121386 2.1947498997287229 254 240 69 0.71952089176191414 32 981 76 966 25 769
3704 -0.52510985151681888 0.41404124070548326 2.1078067039241608 255 245 69 0.18340679469005622 11 960 76 985 25 784 45 701
3705 -0.7785360038143232 0.64133678640176117 2.906837394158083 120 112 95 0.47051264894627814 32 779 76 1027 25 841
3706 0.52539318840642335 1.1970358371988774 1.3287463019863475 145 128 37 0.49016640979212739 32 1042 76 1060 25 887
3708 -0.11081096335832272 0.89286085032240858 2.3923436646296734 255 220 64 0.68863877752208202 32 1079 76 1162 25 924
3709 0.03099937989242002 0.97195932037374433 3.1469288271838924 220 203 165 0.19684749982044134 76 1181 25 1017 80 695
3710 -0.48402556112326001 0.74466938630079971 3.2560548416728734 220 207 168 0.7663431696995795 11 1048 76 1183 25 1019 45 945 100 1001 80 760 57 876 72 951 66 750 22 845 56 1000 19 694 8 902 73 847
3711 1.0645607670865038 1.3770006481152139 1.6541209574728566 180 118 31 0.19470405053608233 11 1056 76 1191 25 1030
3712 0.064104036752670318 1.1923263551779308 2.0564658071503952 206 177 61 0.61912628732218133 11 1010 76 1199 25 1039
3713 -0.59838462385793745 0.31762028508014856 2.1854097663290855 255 233 73 0.066257091920849331 32 1129 76 1209 25 1046
3715 1.2831276971042753 1.0104894209352355 1.9315168387964032 179 128 40 0.15802809095780815 32 1141 76 1219 25 1057
3716 -0.57332646685912125 0.52351448996878236 1.9059767603680147 240 208 64 0.84758683997265027 76 1242 25 1083 47 1100 28 897
3717 -0.57010728536652389 0.67671740168859273 2.9663711280826557 16 16 20 0.71198401377305176 88 1022 76 1258 25 1100
3718 -0.5230294845900092 0.61019248705731666 2.1463102442246162 255 222 67 1.6895545556334994 11 1130 32 1179 25 1109 76 1271 100 1090 39 960 28 947 31 718
3719 0.91935966497260224 1.4130915017097418 1.6074271478176489 255 229 67 0.13967477823981059 32 801 76 654 25 701
3720 1.1890043403050037 1.2055341953766538 1.7718868700275021 255 237 74 0.22195233443943352 32 820 76 918
3721 0.68481283966982387 1.3914116830880603 1.6896513454436386 166 136 35 2.0056777882031414 32 1149 76 1234 25 1073
3722 0.5550218008570118 1.0605401958031644 1.3999448790574631 156 127 31 0.28788517293491955 32 323 76 3 25 261
3724 0.97431830131248842 2.0689425151442156 1.8064572734645872 252 206 55 1.9158008343162845 32 310 76 455 25 272
3725 0.90696581336760063 1.2992437842731825 1.650965420375639 0 0 0 0.095129687173943406 32 340 76 466
3726 0.74002583166071145 0.67731540607226348 1.7057596188433413 178 190 222 0.11296502396140001 76 499 25 312 45 313
3732 1.1660892026622782 1.2358602912860357 1.7387225879212764 255 234 75 0.012254216011702757 32 813 25 488
3733 0.73916041735927274 0.7389807418817449 1.6530611708126135 128 99 22 0.11938786488277697 76 677 25 491
3734 0.5780014491131199 1.0823701729180766 3.0930690688986076 63 43 37 0.25602204303419318 11 516 76 877 25 676 47 502
3735 -0.036024451278399774 1.1112575991067097 2.1943097534081724 165 137 48 0.14779079296615802 11 947 76 950 25 753
3738 -0.29177730439541266 0.68727558361235674 3.2935542042066155 148 99 73 0.22185522348938841 11 777 25 871 86 500 100 667 39 498 56 928 19 699 16 1000
3739 0.60405184222826158 0.89406603606917234 1.5639916297034528 26 33 45 0.20422149078106891 76 1065 25 889 45 850
3740 1.1443394666942994 0.065935478097710387 1.8327374402647765 246 228 187 0.40483613124229156 76 1099 25 926
3741 1.4428841146607085 1.6477600739306306 2.8133412240499274 249 229 187 0.7159420112477205 32 973 25 929 47 977
3745 0.5065042373461256 0.79199002176237543 1.1791120241794493 0 0 0 1.5389876693534812 76 1233 25 1055
3746 0.57701040743791088 1.1767534543377243 3.018787883171214 208 190 152 1.2723064307958292 45 1027 86 1018 39 956 28 938 31 710 80 849 14 890 72 1068 56 1122 16 1197 8 1105 73 1033 84 646 69 927 63 853
3755 -0.26642536179074111 0.61805633209577138 2.5663141733147694 255 246 64 0.2024176286086028 25 621 76 828 45 298
3756 -0.26642536179074111 0.61805633209577138 2.5663141733147694 255 246 64 0.2024176286086028 25 622 76 829 45 299
3757 -0.68081157558984795 0.52741690302352484 3.3607465658003797 81 66 62 0.23290278768587769 76 892 45 373 25 452
3758 0.027652755050631042 0.80187321324136218 3.194900655521566 105 72 59 0.089023123964361683 25 444 76 633 45 421
3759 0.064827509236455527 0.7858442325133157 3.2064582843220877 76 53 48 0.14984753081413979 25 686 76 887 45 423 47 759
3760 1.291604189895623 1.4047471634473199 2.9381930331413506 94 65 53 0.371093674031576 25 403 76 596 45 436 56 497 16 229
3761 0.56393013343046083 0.96472402430330928 1.4824701375848437 15 16 18 0.30436622945890457 44 652 45 467 100 318 86 481 39 438 28 447 57 236 31 259
3762 -0.19707371107669083 0.55544916678150635 2.1690693920759117 255 246 65 0.42452513044154999 11 606 45 480 100 572 80 333 39 442 28 230 31 254 57 520 72 547 66 327 22 550 14 530 12 627 61 706 71 478 10 370 96 471 52 509
3763 -0.17926921685867514 0.60678478183155882 2.2226467174981877 255 250 65 0.19962773219303939 11 611 45 484 86 469
3764 -0.32985126958688171 0.5908224069693131 2.5853935885318449 254 236 63 0.13291221911621623 11 689 25 630 76 839 45 506 31 269
3765 -0.64187302486592823 0.64655222929807521 3.031494244864152 131 129 118 0.97673017723456612 25 680 76 883 45 522
3767 -0.35975665642080301 0.65444029017925165 3.3019897288174 143 95 70 0.57388576454838303 25 875 32 787 76 1050 45 571 100 661 80 441 56 930 16 1002
3768 1.179084018768936 0.90898761465286515 1.9135435746537968 255 254 70 0.52020188393540434 11 618 45 594 86 727 39 505 100 942
3769 -0.16723757836563671 0.7078845449645752 3.323173168614781 226 197 157 0.04435179488406317 25 689 45 605
3770 0.46497516192377014 1.2122423409597556 3.0115065293818781 232 214 171 0.78606877574977729 45 638 100 713 80 483 39 561 28 712 57 805 69 791 63 716
3771 0.54666707018573857 1.2062008042491084 3.0407473205356874 225 209 170 0.09471506426174163 25 668 45 662 100 732 39 586
3772 0.84751622828402162 1.1775566756426445 3.0575140868420765 101 68 56 0.31507035991011145 25 844 76 873 45 678
3773 0.96935718972723406 1.194092655200429 3.0015005276543802 80 53 41 0.055239856338423939 25 670 76 867 45 682 86 445
3774 1.2170045968710357 1.3214968225816468 3.0108319462199709 221 191 148 0.77058908614073529 25 835 86 675 39 755
3775 1.3421626409989853 1.4141183911415909 3.0072851208727758 219 195 154 1.1937324870302246 25 829 45 686 100 895 80 631 22 861
3776 0.95969657971504629 1.5050510687334959 1.5220814030303873 110 0 0 0.99107589329888279 32 794 45 723 86 716 39 686
3777 0.96060986939718052 1.4918541192781229 1.5140443335052574 110 0 0 0.31996058535005367 32 795 45 724
3778 0.65270453882029733 1.3125744987279482 2.9864525678659581 243 221 175 0.10549477959192384 11 900 45 781 86 597
3779 0.72049882110297192 1.3338607561534579 2.9659434304461327 239 219 176 0.24814498682444563 11 898 45 785 86 730
3780 0.39274558666027454 1.0003244509479461 3.1598194540799271 90 60 50 0.74639304588862043 25 856 45 786 86 891 31 639 57 941
3781 0.61710829112263421 1.2351373389409832 3.036356249662485 234 215 176 0.32375144120996457 25 664 76 863 45 789 100 744 28 560
3783 0.71497360131052257 1.0676199654635243 3.1070397590098451 158 136 107 1.3413199120594432 25 852 45 811 39 738 31 529 14 731 69 793
3784 1.1916728265214334 1.349442377680953 2.957286664209644 150 100 72 0.25848583504559519 25 652 76 852 45 828 86 812 100 885 80 625 39 752 28 736
3785 0.90270196812919279 1.5086366469749062 1.5489362171936678 16 16 0 1.0261988068468997 11 928 32 944 45 852 86 880 39 684 31 493
3787 0.96171564048939762 1.356491521400498 1.6088865573854456 150 102 76 0.46711326661804953 25 702 45 857 76 904 86 946
3788 0.19674260485253692 0.79918755629923843 2.1708644106363826 159 129 45 0.18528026348065729 25 917 76 1090 45 865
3789 -0.20655795948891925 0.701361487272402 3.258960564635649 51 34 30 0.088922487998513544 25 1021 45 886 86 876
3790 0.57163741390807066 1.1033143842802007 2.8496783787039455 227 209 168 1.6264330726028065 32 1003 45 893
3791 0.52484888249745332 1.0425504674715254 3.1091389291614688 109 75 60 0.33501574092547609 76 1120 45 899 47 992
3793 -0.77664229042609334 0.60224711151758625 1.9864829047426629 255 228 73 0.29584851425642728 76 1202 45 908 25 1040
3794 -0.67519280305429796 0.64122385647299562 1.9459253593666697 255 230 72 0.10948814734377747 76 1147 45 909 25 985
3795 -0.14714222360300538 0.77356480634619185 2.4873238361447907 183 186 204 0.11391436098887976 25 1003 76 1169 45 936
3796 0.5787129608436179 1.130034109810534 3.0666697301070909 229 212 175 0.64869101787825556 92 893 45 956 86 894 80 702 39 826 72 898 56 910
3797 0.65837370505978665 1.2053547227115089 3.0498122776963865 222 205 167 0.47385848615327053 25 1050 76 1213 45 985 86 981 100 1039 80 797 39 913 28 893 57 978 72 1020
3798 0.63473480425722772 1.0031531980420425 1.4753400674142096 137 109 24 1.30763602249767 11 1095 45 992
3799 -0.2376953273340249 0.73179169585092518 3.2436419800840928 107 74 61 0.62764852032362795 25 1071 76 1232 45 1004 86 977 100 1057 39 910
3800 0.32990202755522385 0.9501276336786324 2.4684261911332941 187 189 205 0.39897423965567641 25 1087 76 1247 45 1010
3803 -0.55234953052050439 0.6543483000408562 3.3174581722989305 85 60 52 0.96723310528789952 5 1061 34 1026 78 700 54 1061 4 1136 59 1050 43 873 32 1038 11 925 92 498 76 1133 25 968 45 562 45 946 43 957 32 1101 86 303 86 930 100 944 80 601 39 810 28 804 31 591 57 793 72 623 66 409 22 594 72 868 14 571 84 191 84 573
3805 0.50711455251312798 1.0963555593174654 2.8382290614715 13 14 17 2.0819749194480481 88 933 76 1211 25 1049 45 891 78 338 54 891 32 1004 86 998 28 917 84 609
3806 0.60418166871896362 0.9240444938345419 1.5116232854407456 188 199 229 0.4150317410230478 43 778 32 1046 11 1004 44 935 94 1179 87 1303 40 1179 24 1109 7 706 92 998 45 919 76 1136 25 975 86 921 100 976 80 640 39 843
3808 -0.42621876321068525 0.57554246227298722 2.4177798310694576 9 4 2 2.2550671626052639 25 1095 76 1254 45 1017 32 1163 11 1110
3809 0.66041652644376558 0.7232101260084377 1.642084405357259 123 137 170 0.39976373949105715 97 17 77 3 48 2
3812 -0.11405899174350634 1.6911687884662638 2.4589557436871923 63 70 93 0.19085030717703463 30 177 77 146 48 143
3813 -0.87965091165968778 1.3222864947166493 2.5760826741944172 57 66 90 0.078150015358731548 36 359 77 179
3814 0.4854423715839627 1.2822091284648995 1.4168283661781236 133 120 50 0.30159788079011612 97 921 77 263 81 17
3815 0.53943190213956493 0.95138693383946005 2.025482577062756 135 100 32 0.21051878834159132 36 521 77 281 58 231
3816 0.55557836547996142 0.95013037493846686 2.0308212090549289 135 100 32 0.22650006992968386 97 629 77 282 58 232
3817 -0.81632553585545553 0.64539208666646375 2.0454882329044168 111 101 31 0.1609810714440634 33 73 77 286 58 233
3818 -0.68484619816715586 0.58007212774136863 2.4958015935702593 126 96 20 0.2633487290427039 17 218 77 328 48 378 2 101
3819 -0.72140984851130008 0.62442334109025832 2.6383207300179805 84 67 13 0.25565467138519676 29 981 33 428 77 350
3820 -4.3273764179625751e-05 1.7307579302101777 2.2752581992784773 2 2 3 0.60461211826561412 29 570 77 363 58 291
3821 -0.82063683015079381 1.2119380540935973 2.8935448200119587 57 58 51 0.32187420321934196 33 659 77 424 48 452 81 166 2 495 58 470 74 164 62 190 37 141
3822 0.43835622628270782 0.78377136159691263 2.0075981549875905 138 104 25 0.31985809571217766 29 775 77 480 58 394
3825 0.70081013263470793 1.3508875776288272 1.2836592447998021 0 0 0 0.19909731231814415 29 929 77 589
3826 -0.8562912181942457 1.1303434877841452 2.9452159055029106 62 65 58 0.32762677782038035 33 662 77 666 81 320 2 665 58 631 74 297 37 271
3827 0.68933423016173889 0.62784039327593988 1.6838745495710266 0 0 0 1.0738725778317448 79 440 77 672
3828 -0.51401743473900174 0.741128427686229 3.253613089212624 118 104 74 0.35745311076462521 33 926 77 722 48 731 81 495 2 854 58 627
3829 0.0022696637594630514 1.9158679688148623 2.4500750172220229 201 187 154 1.3074932361434231 30 846 36 1031 98 1247 91 1295 77 749 58 670
3830 0.93390238258550562 0.64277840646905049 1.6932560509262975 132 107 25 1.6997496682354314 30 929 36 1127 58 684 77 756
3831 0.064248725246057736 1.9315153128962319 2.372048144095285 223 205 166 1.3058451609294051 29 1229 77 812
3832 -0.73547488748370571 0.69404340114629659 2.5952050511877545 124 112 34 1.8726672289591939 33 1000 77 825 48 843 81 609 58 753
3833 0.41925596594001785 1.6398899854726749 1.917548840412912 0 0 0 1.849681944806097 77 832 48 844 81 607 58 754
3834 -0.68532223503750267 0.63099779566360836 2.5835862450606388 90 64 12 0.58872026059062255 41 787 17 776 95 723 77 99 33 126 97 231
3835 0.51954734668965541 1.0411781674077607 2.7788260897314738 3 3 5 0.99884514002343838 11 742 47 107
3836 0.89957951621422061 1.1834556911721716 3.0545356660626379 59 37 27 0.69394137904743458 25 428 47 123 76 613 86 238 100 540 80 533 39 417 72 784 66 579
3837 0.43387404847810829 1.1257357501667811 2.9340164919605733 13 12 16 1.5132451231036275 76 348 47 166 8 226
3838 -1.1025551696291382 1.4816109892572591 2.6670511459412087 36 29 25 0.29723760626608348 21 644 47 276 65 144
3839 3.5541618115884663 10.777058695535336 8.819794331198576 112 111 98 0.12308295004999795 4 543 47 341
3840 0.68309923907169079 1.1644609674900261 3.0820694901573256 52 36 32 1.5990560325340843 25 674 47 496 8 751 73 475 35 422
3841 -0.76205724318554868 0.72131882507137479 2.5434370406887461 190 157 46 0.31283167523087935 21 783 47 536 65 66
3842 -0.89767636630097736 0.90203314702111437 2.5716625801207074 47 34 3 0.61755532226049825 4 576 47 546 73 451 35 128
3844 5.7379261023706274 16.877854855927282 12.309934125078632 118 115 102 1.6273804891331944 4 540 47 634
3845 0.7657372544868466 0.76663263823651673 1.8070629553084299 151 127 37 0.8528919289607394 21 361 47 656 8 813 73 768 35 680
3846 -1.010918482106909 1.4168173733845562 2.7336926235944303 88 97 95 0.26580662747143313 21 843 47 769 8 538 35 184
3848 0.68398747647734182 0.95243754633315958 3.0723922408784641 0 0 0 0.67536236564415764 25 855 47 900
3850 0.58788932331026922 1.1894103753003913 1.2438333441135334 194 164 53 0.51611116071608676 4 1097 47 1017 16 1120 8 985 73 939 35 669
3851 1.5277904856786857 1.6291062618912509 2.819072766518306 0 0 0 1.8806204941721025 25 1007 47 1030 57 898 72 1025
3852 -0.37850814456767307 0.71126758642272581 3.2627831418158162 85 59 47 0.31306619969243626 25 1020 76 1184 47 1076
3853 -0.64165983956577421 0.63287560607473747 3.33933184819402 216 203 168 0.26897009811581435 21 1142 47 1077 65 603
3854 -0.9515568166818632 0.75144678208412474 2.6824782150512232 58 58 53 1.3812513623157439 21 1192 47 1124
3855 -0.73518082782312344 0.44807154567306251 3.4110600301916603 172 129 109 1.9551618105771824 60 789 55 1395 53 784 17 1318 90 1020 36 966 30 771 82 623 78 751 54 1069 4 1137 59 1061 88 900 68 792 32 942 11 1050 44 598 92 862 76 1186 25 969 45 751 97 991 51 935 90 618 36 628 30 401 29 1003 21 1074 81 431 2 657 65 534 84 509
3858 0.71723926092833745 3.151959143321597 4.7795162729315059 228 213 176 1.746194152294672 11 259 86 260
3859 0.2182781808649914 0.99478546327279327 3.1253932411541228 121 81 62 0.22272735076926134 11 766 45 422 86 399
3860 1.0325157414931976 1.3036622707580954 2.9272470608988499 148 100 73 0.1053692511875598 44 388 86 449 84 325 42 406
3862 0.45474381462546498 1.0983692833431662 3.069961288960235 139 92 67 0.28344277157134673 45 427 86 549 39 401
3863 -0.8059223895774037 0.55525681655833692 1.9769521908278727 0 0 0 0.61450285306840435 45 688 86 677 100 787 39 654 28 642 84 372
3865 1.0753851588860892 1.4214395412546059 2.9204240404551753 227 211 173 0.31189054556876605 45 812 86 791 100 876 39 744 28 729 31 541 84 432
3867 1.3345809288622013 1.5391206913002009 2.8701601716014378 243 224 180 0.22233792399747293 45 825 92 838 86 822 28 743
3868 -0.40213539145540678 0.92409904449774916 1.9498505394724741 197 204 232 0.24667608885226219 45 838 86 835 84 555
3869 0.49977781139333838 1.0757304401698549 1.4009195776509966 189 201 229 0.28101988764456254 45 696 86 850 39 658 100 789 28 653
3871 0.96225567619638785 1.5564992823261203 1.4992500667359219 255 223 64 0.044664556586632195 45 719 86 881
3872 1.0922528501760906 0.77898267072487837 1.8258886848316551 255 253 72 0.26760487969612684 45 883 86 890 39 867 28 809
3873 -0.067760332546177443 0.82564776005667517 3.2009205551612232 101 70 57 0.15427685809934905 44 881 86 978
3874 0.26909949061918526 0.95093494450206495 3.1111690638708858 134 90 67 1.3503375476421915 92 996 86 979 28 892 31 673 69 878
3875 0.80681767588077591 1.326943762805598 2.9650795191893384 221 203 162 0.80408065196627698 32 1123 86 982 28 894 14 869 84 614 42 776
3877 -0.14901849323963218 0.85073016269085366 2.4547248541901312 255 232 60 0.40083202872290896 45 997 86 993 28 908
3878 0.77563480435064569 1.2364723045928683 3.0380386015877554 110 73 56 0.88199300586036011 45 1005 86 999 100 1060 80 819 39 935 28 919 31 689 57 1002 72 1042 66 860 22 938 12 1090 61 1042 71 958 10 800 96 804 19 969 56 1096 16 1167 8 1051 73 997 35 891 52 1006
3880 1.2868511875390372 1.6181158988182964 2.8299660717641841 231 215 177 0.4511965084189769 92 1042 28 945 31 716
3881 1.2868511875390372 1.6181158988182964 2.8299660717641841 231 215 177 0.4511965084189769 92 1043 28 946 31 717
3882 -0.1258420340028534 1.1497135207956404 1.5976188839593755 0 0 0 0.65138076582829796 45 1034 86 1027
3883 1.2263158503412062 1.4456760842336138 2.916480150317406 102 71 58 1.3263433076719782 82 26 34 379 54 390 43 455 86 815 15 749 24 790 93 1048 44 708 78 509 54 854 4 906 59 649 34 638 43 658 32 986 43 793 92 796 76 1176 25 1013 45 957 47 699 100 1008 80 768 39 750 39 914 28 816 31 547 72 905 66 585 66 767 22 813 14 741 12 861 61 904 71 887 12 1020 96 806 70 877 19 799 16 1064 6 726 61 818 8 738 73 688 84 547 42 701 52 837 69 804 75 847
3884 1.1334276209666845 1.4812687713554871 2.8872410101192774 102 92 74 0.19173490144909602 78 52 54 399 4 399 59 409 43 278 32 455 11 496 76 590 25 395 45 432 47 76 86 253 43 80 45 211 100 536
3885 1.5452348609446043 1.5017903272638196 2.9505244214373514 164 116 89 1.0699913509647387 94 873 87 998 40 890 68 877 32 983 44 849 92 920 86 904 43 649 45 906 80 722 39 763 28 820 31 555 57 828 66 774 14 805 71 925
3886 -0.17788848926367506 0.9530084292072486 2.303635983540659 250 200 57 0.79190498808655374 32 1076 11 1021 76 1156 25 993 45 925 92 940 86 848 26 1042 53 883 88 855 100 986 80 745 39 785 28 777 31 466 57 856
3887 0.55668211336778894 1.0377325476771551 1.4172931774696313 154 135 53 0.38697597881116874 33 370 48 3 81 4 2 369
3888 0.71889255851628597 0.69002051688272559 1.6970471865938463 39 43 53 0.10338371110721652 33 369 48 5 81 5 2 371 1 5 37 2
3889 0.71913864080199397 0.69032795270367087 1.6974297090463724 39 43 53 0.15477052832333843 33 368 48 6 81 6 2 370 74 6 62 7 37 1 1 4 38 0
3890 0.046245011908384127 1.3571164506295308 2.133023192161192 15 13 14 0.084698716620550549 33 90 48 64 58 80
3891 -0.043070429016721028 1.3975664637553209 2.1525857384884115 81 96 127 0.15326031335582976 77 94 48 70 2 89
3892 -0.73469313066339104 1.3294136021733352 2.6486787069310558 16 18 21 0.50856042341397556 29 311 48 176
3893 -0.50284383292497392 0.68694167410645379 3.2892429366002736 39 23 14 0.23350090947238863 33 471 48 177 2 461
3894 -0.55374509802029936 0.68305092195941197 3.2887490722439541 215 203 169 0.0028829980856185065 33 217 48 184
3895 -0.58801141521603772 0.63743600008040391 3.3126394497218978 39 29 25 0.6926275549042753 33 475 48 187 81 134 2 649 74 285 62 311 37 367 1 229 65 323
3896 -0.42555969847232139 1.6565032181229635 2.6938336151156377 2 3 5 1.4036244400648092 36 877 48 208
3897 -0.68585603937008521 0.78680171171744961 3.2203064759676709 77 75 63 0.19295719524058053 33 494 48 212 81 145 2 483 62 198
3898 -0.7501007857116021 1.1434549644964378 2.9208050457790899 53 47 37 0.24427705998251237 33 264 48 221 2 241
3899 -0.77721664860932227 0.65009719003263289 3.2840806917722798 235 220 184 0.34221854148707215 33 499 48 225 81 155 2 501 74 302 62 328
3900 -0.8289504343004539 0.54883994126355984 3.3650708316608942 228 216 180 0.37160215018342829 33 272 48 238 2 515 37 383 62 339 74 311
3901 -1.049457775823279 0.94371238411489788 3.0332307344176876 82 83 75 0.10094937419585752 33 313 48 283 2 311
3903 0.5518021160451787 0.95843324542749997 1.5009569081268113 4 2 2 0.23195090120109688 33 371 48 335 81 8
3904 0.54270775536398308 0.9620854609337901 1.5032546901997945 4 2 2 0.668432796737088 33 372 48 336 81 9 74 325 62 351 37 293 65 208
3905 0.48789299027184713 1.0094616280132844 1.5212916996534589 99 117 154 0.22713653737960277 77 259 48 337 2 571 58 200 74 203 62 231 37 179 1 9 38 162
3906 0.5299930120685018 1.2524399297125568 1.3586906553916676 136 122 49 0.19291884164026193 77 260 48 339 58 199
3907 0.44131983577165412 0.74230178876427788 1.935757615326106 79 80 83 0.30723162544625271 77 267 48 348 81 21 58 213
3908 0.61738021955533151 0.96772016870338107 1.8906245874793337 101 51 2 0.16409002940766407 33 381 48 350 81 22
3909 -0.053279211274716937 1.2065173247997412 1.9342524250930515 97 111 141 0.077808408971865445 33 399 48 365 81 49
3910 -0.34382668614633471 1.0722944288354914 2.1955212597045408 71 78 96 0.13023440055866464 33 411 77 323 48 373
3911 -0.66991067261932191 0.51233371407491601 2.4954546907038222 133 106 31 0.19180508963017989 77 80 48 374 81 66 33 100
3912 -0.65033050683168681 0.56617770446801585 2.472357658140711 44 38 27 0.130017804933373 77 515 48 375 58 423
3913 -0.65033050683168681 0.56617770446801585 2.472357658140711 44 38 27 0.130017804933373 77 514 48 376 58 422
3914 -0.52504239667939745 0.70302985067326518 2.5976927477645329 63 52 49 0.47934259237228605 33 605 48 382 81 264 2 608
3915 -0.73376742568219699 0.69426420769776054 2.7912899529262849 51 50 46 0.125494365662107 33 185 48 395 81 284 2 629
3916 -0.92955031697908475 0.87373222249101468 2.6084230175343581 36 41 56 0.15135242434095861 33 445 48 396 81 289
3917 -0.97721320062945594 0.95479288712535992 2.5609320536849935 14 16 19 0.13921456749400185 33 456 48 405 81 104 2 433 74 375 62 395 37 349
3918 -0.46815629709734646 0.61721399338924332 3.2991212050017715 45 26 17 0.2310410723358598 33 627 48 424 2 645 58 314 62 295 74 273 37 257
3919 -0.54162186047494199 0.78004273175713534 3.2325839411865078 92 90 76 0.23874269219574765 33 476 48 434 81 132 2 467 74 279 62 301
3920 -0.83078375111695368 0.72016560404384322 3.2485882311453103 93 92 80 0.39192422721106451 33 653 48 450 81 319 2 673
3921 -0.87124518536652074 1.2226751400659548 2.8527988812784426 78 83 77 0.93866719444703739 33 517 48 454 81 169 2 502 74 284 62 310
3922 -1.0806435642795804 0.95878271679422145 3.0285964619675774 129 128 115 0.20698970671956873 33 533 77 212 48 469 81 195 2 537
3923 -1.3322602565462518 1.3826249006258942 2.7471330592832173 154 151 133 0.33014826875922909 33 567 77 466 48 497 81 221 2 362
3924 0.45510745146611203 1.0276466298624531 1.5528145443376633 6 8 13 0.21813091768385048 77 592 48 501 81 229 2 572 58 383 62 357 74 332 37 302
3925 0.72959673562196192 0.73707014771499191 1.8303312466176784 149 130 50 0.59789873589919251 33 570 48 502 81 365 2 703
3926 0.14135701554618793 1.213239279524899 1.7749108118786747 5 7 12 0.26140764530929506 33 579 48 507 81 33
3927 -0.44913524623301398 0.7735551853520336 1.955933584059719 71 33 2 0.16256050590270074 77 283 48 508 58 399
3928 -0.79527246846480093 0.66333530219191905 2.0360093950366185 43 39 26 0.22317933424405229 77 497 48 511 58 404 81 47
3929 -0.49485099663594068 0.89441445977650069 2.0114005339857162 88 103 137 0.46278984473509699 33 590 48 517 81 247 2 397 37 37
3930 -0.85938735853821191 0.81974445233135429 2.3844853476825132 134 104 26 0.26943616467867443 33 611 48 535 74 358 62 380 37 217 1 43
3931 -0.74298457612811075 0.68812001699963676 2.7363965680879887 97 90 27 0.12786741975429974 33 438 48 542 81 279 2 621
3932 -0.22908010064460527 1.9475419781415051 2.3854591702974162 49 36 30 0.082847732137890762 33 624 48 558 81 291
3933 -1.0026776380291631 1.0633802916272526 2.6835825953409742 56 45 33 0.98466142820422842 33 642 48 560 81 130
3934 -0.57098797737603935 0.95277518644047599 3.0953928647853592 69 67 59 0.23493733967496322 33 635 48 562 81 305 2 647
3935 -0.9246052360129452 1.224265157458845 2.7173617853605005 5 6 8 0.22111797016998219 77 659 58 629
3936 -0.82662284145004161 1.0879321926572789 2.9567030286842613 91 94 86 0.31250433560356622 33 793 48 572 2 754
3937 -0.9658916769594128 1.6217276500131546 2.5138216279503527 30 20 17 0.17186258514560732 33 669 48 576 81 321 2 488
3938 -1.1180625390838599 1.0918385978761089 2.9539626386770137 122 124 114 0.094303582740899852 33 688 48 582 81 349
3939 -1.0921408916527531 1.4874284438886007 2.67203121063155 33 23 18 0.34436030554790831 33 694 48 584 81 344 2 691 58 178
3940 0.70111372041281228 0.94671734545021857 1.6779577277394631 134 111 44 0.48037428438982993 33 720 48 605 81 364 2 706 74 416 62 439 37 396 1 324
3941 0.53051096557000721 1.2106841234193548 1.4820008348154281 121 110 44 0.16769193743809999 33 724 48 607 58 492
3942 0.37508266031309989 1.0328788716674053 1.6158676940326484 8 11 17 0.76106954203152333 33 726 48 609 81 368 2 774 58 386 77 471 74 417 62 442 37 397
3943 0.20612179232112057 1.0462645118802554 1.6331863170195056 238 204 71 0.14884852539851404 33 827 48 612 81 457 2 777
3944 0.55086163321750947 1.2424742032263221 1.6135412949700021 94 66 10 0.28626958352793741 33 574 48 613 81 231 2 577
3945 0.89670804675712557 1.6298009841305279 1.4912977820481801 0 0 0 1.387599779626248 48 618 81 235
3946 0.63507822993329432 2.2849437221008211 2.260012725061995 92 64 53 0.20365168323090943 33 862 48 653 81 399 2 738
3947 -0.87784633383491761 0.88507262341920112 2.5503965788283516 105 95 28 0.54712324803362522 33 771 48 654 81 404 2 743 74 441 62 471 37 414 1 180 38 281
3948 -1.0364450240589198 1.053706759514611 2.4998013166844841 55 65 87 0.084258012344616232 33 780 48 659 81 416
3949 0.15223713076370088 2.1794606167042363 2.3867703689224249 88 88 83 2.1029105238148689 36 1035 48 665 85 554
3950 0.44440880864141458 1.0823816437470815 1.5594626875291955 122 101 42 0.57952396277690577 33 902 48 679 81 454 2 708
3951 0.097618769053100046 1.1688144137147309 1.8528654356942951 155 119 39 1.7961744077940143 29 1066 33 836 48 689 81 519
3952 -0.67470772584056471 0.48188215906782589 2.6935831763027722 0 0 0 1.3870624159855929 33 859 48 709 81 533 58 607 77 704 74 545 62 591
3953 -0.91915010095027339 0.96862539361297473 2.4871165113797771 111 102 31 0.66185076660278208 33 867 77 643 48 718 81 482 2 847 58 617
3954 -0.79644878808952979 0.75669341713560856 2.7497611621813198 100 93 27 0.58806898599089708 33 774 48 719 81 483 2 848
3955 -1.0224868999799621 1.0107135669024594 2.4983440491485958 90 106 137 0.42934494411982982 33 873 48 723 81 488 2 805
3956 -0.38396261640245682 0.58811731621331731 3.3392794111926523 162 114 87 0.85965976270242661 33 871 48 727 81 492 2 853 74 527 62 538 37 506
3957 -0.55711416563494154 0.62229415777729213 3.3014458543009013 52 37 32 0.52285144171617204 77 721 48 769 81 566 2 876 58 672 74 556 62 599 37 530 1 429 38 506
3958 0.7623857895824252 0.67698039107917218 1.8223298754784236 143 113 36 1.3795231342645324 33 932 48 772 81 570 2 881
3959 -0.67041293037986072 0.54588241080619404 2.5383292988055368 114 0 0 0.47942026340145161 33 944 77 700 48 786 81 558 58 658
3960 0.75256323200146202 2.3140369150966289 2.2096360175272935 152 142 116 1.1100227346211522 33 961 77 779 48 791 29 1224 81 561 2 845 58 705
3961 -0.67867604265343817 0.44419119102696236 2.1676731196268531 94 54 11 1.0256551231092925 33 939 48 807 81 550 2 863 58 695
3962 -0.89564444204059079 1.377479457109487 2.6148113196638922 51 61 85 1.855845085456028 33 954 48 812 29 1186 58 708
3963 0.19630009191026107 1.1771280088020648 1.7318808269996988 82 83 93 0.68645358544644119 33 975 48 814 81 581
3964 -0.46379056849714118 0.88588398658979539 3.132047008459522 0 0 1 2.0537068657415039 33 990 48 832 81 597 2 907 37 557 1 448
3965 0.21093094176185109 1.9591235582059301 2.2723253630294327 214 200 166 1.6284150587055071 77 826 48 834 81 598 2 915 58 748
3966 0.22743521683145759 1.9653139448156651 2.2770163148362053 214 200 166 1.2162089198611146 77 827 48 835 81 599
3967 -0.56592643336200388 0.44971462978053922 3.1318777274679444 0 0 0 1.73387724778806 33 1002 48 840 81 603
3968 -1.0589447623736203 1.5871902086658627 2.5863922727963615 39 28 25 0.32561660080190291 55 635 41 495 17 575 95 593 97 584 51 581 36 473 48 300 33 332 77 231
3969 0.31037020781532193 2.2364563009611556 2.2651405660845936 34 24 21 1.1748670086195394 87 432 55 507 46 1191 41 845 17 1159 95 1104 51 1119 29 589 33 618 48 554 51 1193 36 1030 30 847 83 1153 91 1207 77 652 58 551 18 625 49 1147
3970 0.72654073332608593 0.91039827664583672 1.8314091518795297 107 63 6 0.15183690972866229 33 378 81 19 2 378
3971 -0.530772372086591 0.51689352173293934 2.0245299816343514 232 3 0 0.16283604460982626 48 358 81 31 2 587
3972 -0.45185146549472455 0.77702512686775738 1.8909740702330009 243 206 72 0.32757496100839267 48 359 81 34 2 35
3973 -0.64586991527559212 0.47019724834749194 2.5082156346535665 70 75 94 0.046236144730813444 33 95 81 64 2 403
3974 -0.27293847505266028 1.2615495835067148 2.1653793144017186 75 59 11 1.2712593992157932 29 513 77 339 81 67
3975 -0.89624022570247852 0.94238020225415853 2.4742308832719049 111 99 30 0.29103927440092464 48 390 81 88 2 147
3976 -0.86703565114098546 0.92019197276056008 2.5418298844170066 97 62 8 0.27441514797935296 33 190 81 91 2 422 74 91 62 113
3977 -0.96288269029715989 0.92478878259641362 2.553299738367321 93 110 142 0.077817282159831566 48 398 81 99 2 636
3978 -0.072917630086600849 1.8840491403198689 2.4609665064702275 208 194 160 0.88677225907235757 33 621 81 102 2 429 74 493 62 535
3979 -0.39495267658808181 1.0185623965256014 3.0850999936346439 86 77 67 0.16217538068209875 48 175 81 119 2 449
3980 -0.48881675180388212 0.98391628131166731 3.0865631829162186 81 73 66 0.075474667473631768 48 431 81 126 2 457
3981 -0.62917595899433132 0.92378211555079204 3.1232394844190883 82 86 79 0.11009589748348982 33 487 81 139 2 475
3982 -0.65945780209469884 0.54950403597986353 3.3722457682964406 51 35 25 0.20256084584787268 77 401 81 141 2 482
3983 -0.76475444847770158 1.1127261175563097 2.937897034853596 88 89 81 0.12241989406792342 33 645 48 444 81 147 2 656
3984 -0.70870034648701807 0.74361470555656761 3.2452606077052337 178 170 145 0.10703037218326909 33 495 81 149 2 487
3985 -0.76895072965430511 0.79043387722312652 3.1943913353452449 132 129 117 0.11634682347669055 48 228 81 156 2 493
3986 -0.77474237996004813 0.44910857958151368 3.433970933009344 64 45 36 0.30346443883598878 33 250 81 159 2 506 74 309 62 337 37 282 1 122
3987 -0.77299611605744023 0.71411323008787342 3.255655753745788 165 159 140 0.0975127216009231 33 503 81 161 2 503
3988 -0.81262373070357008 0.88998063390422988 3.1342335350931636 121 120 107 0.2014481320771779 33 656 81 168 2 668
3989 -0.89103220570335073 0.805968158984392 3.1538835747737424 131 129 116 0.33299558453228162 33 513 81 174 2 513
3990 -0.86427156362074797 0.7788627448820894 3.2021915241654084 89 88 79 0.15158956019329836 48 250 81 176 2 516
3991 -0.8888678460210212 0.8560983159182749 3.1420443646660865 128 125 113 0.24396519121191815 33 661 81 177 2 518
3992 -0.93564029073711064 1.552710465769241 2.6243215015723171 32 21 18 0.18865293889831711 48 278 81 183 2 666
3993 -1.0240216676067355 1.5958740038162482 2.5785371339158489 117 79 58 0.20600790100014513 48 292 81 190 2 519
3994 -1.0000164014251078 1.3898230273625796 2.7527962394927923 61 69 68 0.071896539191564052 48 467 81 191 2 685
3995 -0.9910902137425065 0.81030707574284866 3.1697656905998755 170 164 142 0.10391558788719513 33 525 48 282 81 193 2 535
3996 -1.0563143370404582 1.5930800940083478 2.6687512942424072 56 38 30 2.1950615462858862 33 544 81 197 2 334
3997 -1.3639233488991291 1.4441708827610515 2.6401420669979117 143 99 75 0.076405463341101779 33 566 81 218 2 558
3998 -1.3318610575545242 1.4128116732867502 2.7024897350276906 173 167 146 0.16373178928753812 48 327 81 220 2 560
3999 0.5365722884906472 0.9694576409814315 1.4682756354889457 124 135 161 0.69108663588323471 48 499 81 226 74 3 62 4 37 177 65 363 1 127
4000 0.25943607640388927 1.0023680847859682 1.712643783898155 119 133 168 0.20375497249198551 48 349 81 232 2 578
4001 -0.3487367601610436 1.0995147150338447 2.223789745138077 83 63 30 0.28201004736761065 48 527 81 255 2 402
4002 -0.29530567791112439 1.2082628365631745 2.1883557646461567 100 89 26 0.38390938388928159 33 758 81 256 2 606
4003 -0.69547009796109471 0.62866725992100025 2.6151723931139927 117 102 27 0.081865854647394362 33 609 81 268 2 611
4004 -0.74317579288821456 0.68764347066574216 2.7360994597574355 97 90 27 0.075926768907663478 48 541 81 278 2 620
4005 -0.75106668525021292 0.72446106566201063 2.737063333166474 65 47 6 0.26313095153954347 48 392 81 280 2 626 74 369 62 389 37 342 65 275 1 184
4006 0.1645426102085458 2.1153016627535561 2.3208658125006112 105 77 65 0.48935142521406361 33 619 81 282 2 742
4007 -0.88526033069184173 0.8464972963409334 2.587454748913899 55 61 77 0.43935503129322057 48 543 81 283 2 627 74 367 62 387
4009 -0.88834312308017482 0.94238347484627638 2.5375004384578532 116 99 26 0.16526798244032045 48 546 81 286 2 628
4010 -0.93051895353926162 0.90853216025972439 2.5795764011125479 92 109 144 0.10897245495036795 48 548 81 288 2 633
4011 -0.92866108210547105 0.87421230724823284 2.6091092452510161 34 40 53 0.086718669275611324 48 397 81 290 2 635
4012 -0.89115836676525839 0.97655946642826186 2.6718827365895024 95 85 22 0.19541631369944365 48 556 81 295 2 641
4013 -0.33655230207325576 1.8634641636863214 2.479957792881895 93 102 103 0.75404599247998849 36 386 81 302 2 440
4014 -0.63350972780019255 1.7571435304158669 2.515885341738973 22 15 12 0.35428261184538162 48 440 81 307 58 155
4015 -0.91711437546778218 1.0316587107179316 2.9838708529787996 113 112 102 0.10997432841922729 33 663 81 323 2 671
4016 -0.95001643698791738 1.3112917245376869 2.8221662350397749 98 101 93 0.22747092521391055 33 671 81 328 2 681
4017 -1.0290859681151345 1.5135984909889557 2.6261277380196208 38 25 21 0.48005269721381583 36 460 48 465 81 330 2 678
4018 -1.00740323726468 1.1481823048871191 2.9144991626322585 113 114 104 0.033825277573762406 33 674 81 333 2 687
4019 -1.0609376136553432 1.0397276240720676 2.9829608646160168 68 73 66 0.077998949918984276 33 677 81 339 2 692
4020 -1.0637468831348407 1.1196772432610784 2.9329312128530907 118 119 109 0.073676832328174943 33 681 48 579 81 340
4021 -1.1570556214031249 1.5274741622657599 2.6061927728682077 133 92 67 0.100939169367132 33 701 48 587 81 348
4022 0.58373835751976755 0.75196255625518083 1.508570774618232 153 136 52 1.9020675562134439 33 711 2 768 65 470
4023 0.46403884079384827 0.76797485983964586 1.8799861105774645 107 124 161 0.12113756104653906 48 611 81 370 2 711
4024 -0.70347110452369166 0.50229528406891777 2.7829211510466658 120 126 159 0.24850492054484172 48 650 81 400 74 439
4025 -0.78808244070099676 0.66231983975012299 2.9025121394113893 94 109 139 0.51882430230061904 48 655 81 413 2 750
4026 -0.55092236911926129 0.46797733654590662 3.34932369940611 0 0 0 1.2285871511197066 29 1098 81 424 58 623
4027 0.46358671525318046 1.0812327135813258 1.5567681351128102 118 101 44 0.48583697628242933 77 674 81 455 2 709 58 575
4028 -0.65342685690729485 0.43938438558319015 2.39403380492787 135 114 32 0.30098129051163819 48 697 81 470 37 448
4029 1.0660127125830277 0.57793418214452175 3.3715905007700795 0 0 0 0.4711022433170915 41 1543 81 477
4030 -0.77098910592701742 1.1469255923057251 2.3872992433705322 100 88 23 1.035289388193096 33 186 48 767 81 481 2 741
4031 -0.90708347911927045 0.84525701154897215 2.6515463222611149 108 98 30 0.43680134282886823 48 721 81 485 2 802
4032 -0.7847660993021297 0.85226341206715595 2.7182852043950883 108 98 30 1.100574082513784 33 868 48 722 81 486 2 801
4033 -0.16828338809365631 2.0058507382941793 2.3422604073760933 39 28 26 0.29671938903860795 41 1421 81 490 2 746
4034 -0.84958046268896759 0.98829782513300968 3.0172346261587988 114 110 96 0.1380680647280963 33 881 81 501
4035 -1.148776418717681 0.95225812330327819 3.0542197866394099 105 107 99 1.8529043594953467 33 806 81 505 2 822 58 633 74 498 37 512
4036 0.72999620590797043 0.63607573541773677 1.9214211073431535 0 0 0 1.5497776525188041 48 747 81 509
4037 -0.65419872097856935 0.3985352709461793 2.3366004329879004 138 117 34 0.43974800998044145 48 752 81 525 2 788
4039 -0.67968939242775561 0.62122950753040163 2.5306377442053556 122 88 20 0.690437883293753 48 763 81 529 2 796
4040 -0.9072095978923258 0.90735554715511924 2.4790768742816098 107 59 4 0.77247704395816319 48 764 81 539 58 611 33 866
4041 0.62660273688577817 1.3319336571051044 1.2385584743679117 0 0 0 1.6683122533951815 48 804 81 547 2 880 58 714 29 1157 1 396 37 514 38 434
4042 -0.50192962520622209 1.1126107844338351 2.2166915504158466 209 163 40 0.25488981739596678 33 946 81 556 2 869
4043 -0.52733435016187025 1.1052359368357967 2.2082983091728381 209 163 40 0.24003812618899448 48 762 81 557 2 870
4044 -0.69092803981261375 0.5453685863387846 2.5276533145370514 105 0 0 0.10370008287052267 33 945 48 787 81 559
4045 0.92458440469303649 0.64300402739233797 1.6998945377749282 130 103 27 1.0188273761183084 33 972 48 802 81 567 2 893 37 542
4046 -0.24289159437280605 1.0556283433553753 2.1221782804154876 142 102 20 0.56260684503233216 33 959 81 572 2 866
4047 -0.64988292579880769 0.75200890716455404 2.9616340271255881 59 71 94 0.72244064658361917 48 822 81 577 2 890
4048 -0.72672454003323561 0.84151222373771239 2.4885131678785366 165 131 36 0.80155431814544686 48 820 81 585 58 718
4049 -1.0187239025612966 1.0206676293822983 2.4681770261048914 92 102 126 0.89828326199777753 48 821 81 586 2 899
4050 -0.65086556022237052 0.42743310921834732 2.0711160409504403 234 179 45 1.2608070813625247 77 764 81 589 2 904
4051 -0.87017624545502714 1.1046661853961508 2.2665408132558271 100 89 27 0.45039009501822624 33 989 81 590
4052 0.59067622271167852 1.1802558486244141 1.3321160772095801 138 122 48 1.612042578450863 48 828 81 593 2 909 65 632 47 1114 62 615 74 572 37 543 1 439
4053 0.54007560297253754 1.1696719323699289 1.335586409642233 138 122 48 1.4220733418570808 48 829 81 594 2 910 74 573 62 616 37 544
4054 0.35276486785695021 1.3958024814523344 1.7166970629629161 0 0 0 1.3120196786948879 48 830 81 595 2 913
4055 -0.35602801202531925 1.8476449954521326 2.4787126650341946 91 101 100 1.7389342605839149 97 526 51 522 36 387 81 301 94 1214 15 1043 87 1272 40 1210 24 1128 7 743 26 1067 60 1085 53 897 64 1160 7 576 41 1317 83 710 29 1104 5 1039 21 1104 77 199 2 439
4056 0.089485915544903094 1.8306894981193378 2.3939136568433863 3 4 5 0.10065013090581369 33 174 74 102 62 122
4057 0.069837041474311773 1.8428697206057143 2.4243150652458731 2 2 5 0.077410316051385444 2 145 74 105 62 127
4058 -0.9887501972335383 1.1099201647596344 2.4677446928257125 10 10 8 0.46397803318904535 81 106 2 161 62 123 74 103
4059 -0.80567594977579338 0.7904901597015016 2.7985654849747363 90 101 130 0.54382942679102042 33 449 2 162 62 131
4060 -0.95852412014015265 1.190288387784544 2.6062762195488167 60 51 9 0.23091025521663414 48 173 2 203 74 121 62 149 37 109
4061 -0.64135500311825233 0.67371043024329413 3.2970327395480927 112 106 87 0.052782461754388735 33 232 2 237
4062 -0.70919545582308319 0.48412688370078449 3.3863003761161554 61 39 29 0.5606541073844572 29 281 2 244 74 167 62 196 37 148 65 166
4063 -1.0210401014864219 1.5510176410401546 2.6182959722702246 31 23 22 0.13204591852875294 81 192 2 289 48 471
4064 0.62629241783568357 0.76959195272353687 1.7451237709410965 6 9 13 0.15056368631319567 81 15 2 375 74 333 62 359 37 300
4065 -0.4348936474238238 0.71353639082023845 2.477072304319742 60 59 70 0.17582840873577943 81 70 2 404 74 69 62 86
4067 -0.86127897233642525 0.92127490235875442 2.5427479164995783 93 58 7 0.16248547310762049 81 92 2 423 37 80 62 114
4068 -0.031963859627035407 1.8704223063868772 2.4784563910443707 35 32 25 0.53670734331800174 33 195 2 428 74 114 62 137
4069 -0.52910873562744176 0.81089765414586734 3.1691234415649183 6 5 5 0.46378070380296865 81 124 2 456 1 83 38 297
4070 -0.78104291289842187 0.59337641227709292 3.3018896628064676 228 214 180 0.19059823238036949 81 152 2 490
4071 -0.78104291289842187 0.59337641227709292 3.3018896628064676 228 214 180 0.19059823238036949 81 151 2 491
4072 -0.81676524586805377 1.2149026042897653 2.8955907952963753 48 48 40 0.22720518156130348 81 167 2 496 74 163 62 189 37 142
4073 0.6562986976810502 0.78348899284509599 1.6433185623914182 10 10 11 0.41461556425943968 81 227 2 566 65 206 74 326 62 230 37 294 1 128 38 248
4074 -0.8170996522213152 0.75594667017173067 2.5197848277388584 165 133 38 0.16165526790623255 81 86 2 616 74 242 62 264 37 70
4075 -0.73527914992927035 0.41377771318232065 3.4066252844735438 0 0 0 0.84192353809127141 81 309 2 653 74 397 1 231
4076 -0.8112020258162661 0.56618352372349046 3.3371010994692503 229 216 181 0.44451718683549252 33 644 2 667 74 305 62 332 37 380
4077 -0.88111016337555459 0.66969018768362754 3.2572427920623688 208 197 167 0.17932624889638291 33 655 81 172 2 674 74 409 62 424
4078 -0.91362538892785006 1.1897774979460958 2.9232385620294021 102 103 95 0.44239805290537326 81 327 2 680 62 421
4079 0.53944964748419921 1.3455942842153616 1.6265182873303063 107 74 15 2.362936965044617 81 373 2 713 58 586 77 679 85 504
4080 -0.96235946598446087 1.4386456348697187 2.7063861428166818 64 71 69 0.2799658850508942 29 713 33 672 2 755
4081 -1.2653979117505834 1.295624774090981 2.7845736823121863 126 128 119 0.32109790077115397 33 817 81 445 2 764 65 359
4082 0.48538360302549544 1.2653225507217896 1.4398748433522097 132 119 48 0.2349667694955857 48 680 2 773 58 576
4083 -0.61443938454399238 0.29438414138440155 2.2730517542207944 0 0 0 0.54260656138889696 81 462 2 785 74 473
